ply
format ascii 1.0
comment Created by Open3D
element vertex 2520
property double x
property double y
property double z
end_header
6.71817 10 2.76873
5.52715 10 4.63702
6.09406 10 1.32469
8.62797 10 0.117466
5.54346 10 0.485091
4.8049 10 2.63531
2.65788 10 1.33946
4.55967 10 2.06108
9.80351 10 3.27217
8.8675 10 0.346385
6.17128 10 2.43484
4.98927 10 0.96747
9.23633 10 6.68522
5.48311 10 1.75352
8.88459 10 4.31935
6.44881 10 2.9443
7.462 10 1.77126
8.09738 10 2.96689
5.96941 10 3.71717
3.28953 10 2.02991
7.34305 10 1.82563
7.81823 10 4.77466
4.11366 10 1.78282
3.589 10 3.18653
2.26515 10 1.8297
5.77453 10 3.58025
9.95862 10 1.05735
2.5547 10 0.134536
9.40311 10 7.96244
3.61465 10 3.30885
9.94819 10 8.64005
9.77342 10 2.14169
9.03575 10 0.0646043
8.61892 10 5.25857
7.33922 10 7.24848
6.58419 10 6.25591
8.6001 10 6.0926
2.43977 10 0.458517
4.97712 10 1.9432
8.84754 10 2.07189
7.5969 10 1.4682
9.58701 10 0.572459
6.5679 10 0.341758
3.48433 10 3.35773
4.08467 10 2.07141
5.22225 10 2.01134
8.1823 10 1.64685
9.02387 10 1.21922
8.32214 10 2.71672
9.34637 10 5.62638
3.0439 10 0.244757
7.75545 10 5.18664
2.68797 10 2.54927
8.44446 10 1.09407
5.30355 10 0.696545
4.98041 10 0.591316
6.24188 10 4.73221
7.76588 10 2.79835
3.73583 10 0.133168
9.70463 10 4.79852
3.05487 10 0.698023
9.30535 10 4.74211
8.02276 10 5.70163
7.42822 10 4.66665
6.67622 10 1.52525
1.93304 10 0.516202
8.23661 10 2.43654
9.60195 10 7.78191
9.50451 10 7.18635
5.85981 10 1.79286
6.90813 10 0.602706
8.03307 10 4.04672
2.96914 10 2.27729
4.51807 10 0.564913
5.30526 10 3.99764
9.79133 10 4.32653
3.55331 10 0.222659
7.3236 10 1.39812
9.78307 10 6.87514
5.50501 10 5.41887
3.97226 10 1.82371
4.38991 10 0.544573
8.21479 10 5.24138
1.21257 10 0.213133
5.61509 10 5.52327
8.37324 10 0.173385
5.11413 10 4.7653
6.51331 10 2.80794
9.56126 10 7.92103
6.6151 10 4.12905
8.23643 10 7.48608
4.74441 10 2.25718
7.56071 10 7.31209
4.58 10 3.42207
5.14222 10 1.39952
6.26056 10 5.1775
4.49092 10 1.51095
7.77161 10 4.12797
9.73994 10 6.18518
8.49829 10 0.598605
8.765 10 1.97334
9.72754 10 1.86297
8.10041 10 7.45001
4.47116 10 4.22251
9.43004 10 7.60189
8.43837 10 3.11938
3.63285 10 2.82083
6.58898 10 0.485466
0.693559 10 0.587605
7.01521 10 0.267643
3.37328 10 3.19688
4.01056 10 3.58487
6.05 10 1.70797
9.14132 10 2.13137
7.10655 10 0.628249
9.28296 10 3.17003
9.36788 10 1.29974
5.55077 10 1.07912
6.82901 10 2.92937
7.33352 10 0.385737
6.81092 10 6.19596
9.7971 10 2.5775
8.23392 10 6.88827
7.23339 10 0.823223
3.11636 10 0.446824
9.34864 10 2.32458
3.10935 10 1.60299
8.61338 10 7.27982
2.43554 10 0.775958
3.47704 10 2.29598
7.59339 10 0.753775
9.91616 10 1.25186
4.53776 10 4.07119
2.92665 10 2.40713
3.30323 10 1.62428
4.49345 10 1.37323
4.68502 10 0.273663
8.51179 10 4.8141
5.84042 10 5.50023
8.0534 10 4.4902
9.25957 10 6.90563
9.99508 10 1.78792
9.61344 10 5.02261
5.01428 10 3.05584
7.34273 10 2.3141
9.03566 10 0.20157
6.3108 10 3.97655
1.15251 10 0.045046
9.54361 10 4.86781
9.16971 10 3.24677
8.6635 10 0.315937
8.42715 10 6.73689
4.22736 10 1.52162
6.18369 10 4.02893
8.3586 10 0.0288808
8.20034 10 3.09082
8.32089 10 3.69009
2.57254 10 0.346444
7.48717 10 4.34839
8.17399 10 7.07803
8.7852 10 0.656766
2.55874 10 0.607765
6.07941 10 4.17367
8.54096 10 6.2574
5.61922 10 1.91553
8.82703 10 6.21937
8.2188 10 4.10875
9.46927 10 6.08684
1.2804 10 0.671837
7.91159 10 4.01837
4.3587 10 2.8116
3.57424 10 0.385198
9.65313 10 1.15346
7.63721 10 6.49019
1.37556 10 0.579068
2.97374 10 0.430265
7.32634 10 5.48165
9.66726 10 8.32251
6.82497 10 1.34221
8.24778 10 6.1575
9.27069 10 3.618
9.24516 10 4.87612
7.00421 10 1.4674
9.83781 10 2.82363
5.50698 10 5.21164
6.60912 10 0.214458
4.67157 10 1.24427
7.91034 10 6.11863
2.15765 10 1.4891
7.85713 10 0.366142
5.31513 10 4.47688
2.6832 10 1.49994
7.61858 10 6.35321
0.378775 10 0.242542
9.64069 10 2.14888
9.44169 10 0.760083
5.92168 10 4.71087
9.76196 10 4.6588
2.50274 10 2.38832
5.67753 10 0.657437
6.45789 10 1.35277
9.20863 10 7.6469
8.74716 10 5.0507
9.66292 10 9.10236
8.07099 10 0.997099
2.44047 10 1.84686
4.59008 10 2.37909
9.60173 10 8.79821
6.9403 10 6.21333
3.31813 10 2.52426
9.46386 10 4.21298
6.09038 10 0.630988
3.96097 10 3.20675
3.96019 10 1.66153
9.81951 10 7.67481
8.41274 10 3.98278
8.50533 10 3.30935
8.96077 10 7.70114
3.76289 10 0.808134
8.72898 10 6.30871
6.95855 10 4.07077
5.6831 10 1.4358
9.03715 10 2.21718
7.63014 10 3.61693
8.25448 10 6.42362
8.00646 10 3.2688
7.48641 10 3.32167
3.7596 10 2.2777
6.2579 10 4.40523
7.48116 10 0.96093
9.33754 10 5.23167
4.08187 10 1.9473
5.69492 10 1.74541
9.54065 10 7.0601
7.21657 10 6.3536
8.99253 10 5.97389
9.04238 10 4.60604
9.48574 10 4.99014
8.30766 10 4.51345
4.74944 10 2.1236
2.21426 10 0.794087
2.91008 10 1.52957
5.45497 10 3.42689
7.61541 10 0.965122
8.93393 10 8.77384
6.24891 10 5.83802
8.51372 10 7.00802
6.3397 10 1.61142
9.84486 10 4.05222
6.99292 10 2.87467
5.34567 10 2.32372
8.39691 10 6.12017
8.85045 10 4.15062
8.70294 10 3.60055
7.06727 10 4.12853
9.10174 10 3.59465
0.474599 10 0.134079
7.28498 10 3.24129
3.14949 10 1.0435
8.65961 10 5.94478
9.32049 10 6.18669
4.13367 10 4.06661
5.88908 10 1.45348
6.0208 10 5.05236
5.95691 10 1.10419
7.7578 10 0.639715
5.48012 10 1.5846
4.90086 10 4.68315
7.09857 10 1.88278
6.8471 10 3.26693
5.91238 10 2.83856
4.12601 10 0.223257
3.70043 10 0.502658
9.87392 10 6.04236
6.86481 10 5.20148
4.37132 10 1.55963
6.52716 10 3.76071
9.96979 10 3.68479
2.44198 10 1.50366
5.59865 10 4.50691
8.07205 10 6.81759
8.89818 10 5.8497
2.87818 10 1.76039
2.76648 10 0.260999
7.97413 10 4.78628
9.11631 10 6.97514
6.16064 10 1.45168
3.72099 10 2.54032
7.45119 10 2.93251
4.39918 10 3.99131
9.78914 10 9.70104
6.29397 10 2.38018
8.05934 10 0.20602
5.10639 10 3.42671
5.11165 10 3.13214
4.72276 10 3.35595
9.50026 10 3.73163
4.24596 10 0.182818
9.23461 10 8.22279
9.82302 10 8.41261
7.53744 10 7.4385
6.74234 10 0.662297
8.28554 10 7.85886
3.05255 10 0.82845
4.28785 10 3.26527
4.68265 10 1.76263
5.6054 10 3.79919
9.36946 10 4.92279
8.7477 10 7.86596
0.117009 10 0.0485572
8.53073 10 7.71222
7.68307 10 7.53483
2.91956 10 1.17803
7.03716 10 5.38889
4.48621 10 2.88701
1.65476 10 0.314339
6.46816 10 4.28845
6.76377 10 0.0982348
7.82722 10 1.36096
3.76673 10 1.62201
7.24814 10 1.13892
6.11528 10 3.761
1.71538 10 0.539187
3.77336 10 3.51385
4.16485 10 0.652683
9.41239 10 1.92869
5.27999 10 4.95519
9.10103 10 1.67079
8.65198 10 0.924765
9.36824 10 7.39544
4.29961 10 0.00392706
3.45691 10 1.73635
2.01165 10 1.98575
8.46092 10 8.28361
9.38935 10 4.36457
5.57004 10 4.76119
2.80412 10 2.35108
6.64285 10 4.58252
8.38341 10 4.29809
3.31229 10 2.17481
6.33326 10 0.735805
9.18221 10 0.0222259
9.30559 10 9.30179
9.22049 10 6.47379
6.89053 10 5.46498
8.33365 10 7.09215
7.94873 10 6.78782
7.7927 10 0.942712
9.97911 10 1.65353
6.14924 10 0.404216
6.37804 10 2.06773
7.8595 10 7.52152
6.81126 10 6.67727
0.588059 10 0.0653345
7.38042 10 5.60622
7.09208 10 2.28022
5.93426 10 5.37514
7.0966 10 3.98326
9.58874 10 5.89534
9.90932 10 3.19694
6.76903 10 3.51638
6.4283 10 0.33537
7.53302 10 6.55862
9.89837 10 1.8718
9.31599 10 2.14006
9.20642 10 9.09513
7.96308 10 0.452085
6.74532 10 0.268132
0.842289 10 0.250209
4.25401 10 3.86385
2.13008 10 1.19623
2.25294 10 1.70547
1.6183 10 1.32285
7.97611 10 7.2688
8.13831 10 7.81122
8.82893 10 4.61966
4.30686 10 1.92815
6.44702 10 0.469774
6.5739 10 2.44284
5.69348 10 5.00214
6.90166 10 0.177578
9.99532 10 4.1349
7.41958 10 6.75384
1.29925 10 0.363495
8.2061 10 3.98507
9.7138 10 9.48118
4.53777 10 0.388762
6.5506 10 1.58219
9.27484 10 0.344957
9.10525 10 8.28142
6.4704 10 0.727236
7.5369 10 4.75192
8.4133 10 7.78546
7.47076 10 5.50818
6.18774 10 1.06083
5.11573 10 1.27306
9.69188 10 7.21532
4.04151 10 0.421542
7.94643 10 3.09963
2.51011 10 1.60785
8.55881 10 2.99721
4.56673 10 2.19472
4.60222 10 0.135049
8.47385 10 5.50491
5.40072 10 4.89866
2.30844 10 1.52336
9.41514 10 3.6364
4.03417 10 0.642505
4.88023 10 0.491963
2.85436 10 0.664809
8.44494 10 3.66564
5.15527 10 2.46552
5.36279 10 0.573712
7.49963 10 4.53725
8.98644 10 2.723
7.1613 10 3.32068
9.59109 10 2.37811
6.1902 10 4.86432
5.96961 10 5.25392
9.94785 10 6.91025
0.585329 10 0.235824
9.26984 10 5.49666
2.86693 10 0.124332
7.67489 10 6.93273
6.6936 10 3.40569
1.931 10 1.1923
9.6121 10 0.432156
5.51499 10 4.05967
4.61583 10 3.89361
8.31342 10 1.6891
1.91315 10 0.371624
8.04122 10 1.63681
7.70844 10 7.19584
5.93497 10 0.759395
9.87775 10 9.864
4.55748 10 3.17257
8.44488 10 2.53307
5.65147 10 3.27032
6.7186 10 4.86202
7.35424 10 6.36503
4.77592 10 2.79595
7.30535 10 5.99112
2.1675 10 2.09831
8.82219 10 6.80253
6.89063 10 0.0368923
4.99912 10 1.1753
5.75736 10 5.72077
6.23815 10 3.56903
4.26929 10 4.03751
8.90543 10 4.48668
1.2807 10 1.09612
9.15586 10 7.53491
1.70187 10 1.43078
8.88854 10 8.28014
4.23434 10 2.47091
5.41655 10 2.2094
9.01391 10 8.51585
8.1026 10 6.11285
3.98909 10 2.32613
5.80528 10 4.60297
9.65655 10 6.54408
4.53189 10 2.58976
9.44395 10 8.53496
7.1657 10 2.15808
8.17615 10 4.51472
9.11361 10 0.619044
7.15519 10 6.21329
4.37487 10 2.61203
6.96794 10 3.58255
6.19967 10 0.522502
7.94041 10 1.90997
5.7233 10 0.428836
6.33882 10 4.23373
6.84865 10 2.17772
8.47197 10 1.86913
1.23438 10 0.957825
9.37076 10 2.4718
7.24475 10 5.61055
8.87126 10 5.71495
8.25352 10 6.73189
9.63246 10 1.47498
9.58746 10 4.52186
6.04355 10 4.79087
6.20174 10 1.5968
4.89121 10 2.33974
5.29476 10 3.04133
9.05806 10 5.34459
8.16265 10 3.33453
8.83664 10 7.20411
9.72432 10 7.43366
9.69538 10 3.54156
5.0297 10 0.275191
5.05474 10 2.33324
8.58222 10 3.1356
5.0208 10 3.92612
6.58575 10 5.82147
4.02283 10 0.100285
7.96313 10 2.5949
7.3418 10 1.04879
8.74645 10 5.31139
1.76522 10 0.698264
6.88294 10 2.45439
8.95083 10 1.35534
3.52592 10 0.955373
3.32944 10 1.86074
9.22808 10 0.756286
2.03643 10 1.44302
8.48384 10 5.35992
5.26167 10 3.60572
7.84611 10 2.95747
2.79549 10 1.59581
4.90572 10 3.27364
7.4308 10 1.16262
5.69403 10 0.816947
5.24681 10 4.59135
9.27379 10 2.57686
3.29169 10 1.43559
9.62342 10 3.42155
4.43142 10 2.46837
9.08197 10 6.57366
4.23329 10 2.2683
8.5576 10 8.03735
6.2343 10 4.16265
8.37166 10 0.507158
1.587 10 1.00565
7.16991 10 3.68292
3.83765 10 0.291902
9.19625 10 5.38462
6.32801 10 0.932604
6.02152 10 5.50379
9.77402 10 6.44788
6.15544 10 3.1739
7.16889 10 5.98459
7.07073 10 6.39513
4.46371 10 1.02513
9.83607 10 9.58131
5.02688 10 4.10426
6.96884 10 1.94885
8.64271 10 2.21593
9.01974 10 7.17016
8.24821 10 4.86723
5.18896 10 3.91128
3.23902 10 0.910839
8.89456 10 1.23766
8.80229 10 8.57287
3.09447 10 2.3687
8.48704 10 4.67301
4.32839 10 0.666282
6.01058 10 0.239728
5.92951 10 2.12232
9.42029 10 5.78908
6.29385 10 0.351284
5.76082 10 4.77706
2.40241 10 0.577157
4.63122 10 0.655473
5.19474 10 2.58695
9.34916 10 4.03345
6.90991 10 1.74333
8.12897 10 6.36027
8.61923 10 4.44358
5.30734 10 4.22485
9.03819 10 2.99047
3.98815 10 0.77198
4.55012 10 3.00361
9.70284 10 6.98652
7.38494 10 3.69493
6.63252 10 0.911755
7.40597 10 2.08096
4.00724 10 1.17947
8.1633 10 1.94086
9.83974 10 2.40234
9.99416 10 3.33322
9.33751 10 7.83544
7.86703 10 1.77838
6.21954 10 2.66615
7.96454 10 0.929628
7.21325 10 3.84413
5.84049 10 0.218832
5.07847 10 4.4501
8.84171 10 1.84162
4.26803 10 2.69679
6.81862 10 0.956738
9.29766 10 7.50261
5.58619 10 1.34525
6.36913 10 5.49247
4.85956 10 1.12358
4.3487 10 0.922285
9.00218 10 3.94625
8.02937 10 6.44388
7.81803 10 6.78809
3.87476 10 0.586098
3.30589 10 2.92223
4.79461 10 2.44111
6.63974 10 1.68742
2.26044 10 0.624442
5.38724 10 5.28333
9.84338 10 3.54353
2.72538 10 2.07023
6.50191 10 0.982652
8.72029 10 3.94474
5.45766 10 0.728122
9.85396 10 7.33301
9.86087 10 5.64233
8.09209 10 1.37245
3.59753 10 0.683082
7.95855 10 4.20862
7.5185 10 3.19103
9.56099 10 9.01079
7.73743 10 7.69547
8.44496 10 7.20216
4.93154 10 2.07786
4.5356 10 0.769563
9.88842 10 5.12875
9.50013 10 3.99898
9.67651 10 3.03991
9.35224 10 0.235296
3.94799 10 2.97496
6.53994 10 3.09839
9.62528 10 5.75524
6.45352 10 1.71761
9.59865 10 4.364
6.25109 10 5.41411
9.34555 10 2.71938
6.42429 10 0.0305053
5.43128 10 2.99024
9.20346 10 4.42792
6.17042 10 3.90678
9.19285 10 5.62269
6.52136 10 6.38323
9.99503 10 6.47469
8.89005 10 1.00331
1.66738 10 1.20345
2.34338 10 0.368149
6.64837 10 1.20938
5.34042 10 1.6995
7.34103 10 4.55263
9.98205 10 8.103
7.21732 10 1.71491
8.38648 10 2.36311
6.06623 10 2.14085
7.98626 10 7.78118
9.15812 10 6.20826
6.37151 10 3.50435
9.73609 10 6.7359
3.94339 10 2.10076
8.11265 10 3.67016
1.62305 10 0.864891
7.33009 10 2.49825
9.79133 10 2.70275
5.43282 10 4.55517
8.51796 10 7.59056
4.0853 10 3.71846
5.614 10 2.54898
2.60184 10 1.96707
7.20285 10 5.43776
6.54318 10 5.40929
6.12013 10 5.22755
2.63605 10 2.32802
4.6307 10 2.85578
3.31186 10 0.248881
8.13012 10 1.50667
4.69596 10 3.55717
8.67808 10 1.605
8.71997 10 6.59718
8.29912 10 6.01674
7.08252 10 0.446772
8.74891 10 3.45154
0.950397 10 0.17152
9.49417 10 8.70372
6.54652 10 3.37784
8.11529 10 2.41592
4.61378 10 1.42748
5.63375 10 2.88112
2.49318 10 2.24449
4.8467 10 3.44079
7.02836 10 0.143709
7.26258 10 4.37867
8.49233 10 6.45908
3.88772 10 1.31055
4.3938 10 3.81726
6.53697 10 1.81235
8.00128 10 6.94266
8.00269 10 1.12102
4.46926 10 3.67673
3.71155 10 1.96909
4.28438 10 2.99036
8.18505 10 7.23544
5.9179 10 3.87625
8.79652 10 0.820871
8.07602 10 4.32273
5.91163 10 4.25998
8.47945 10 4.14477
7.95132 10 2.24366
9.70675 10 0.308776
7.04999 10 2.65661
7.97336 10 7.42175
9.31681 10 8.50117
8.33986 10 6.61472
2.53039 10 1.23129
3.11229 10 0.116766
9.17185 10 5.25492
7.14059 10 2.52338
5.35388 10 1.5422
3.41395 10 1.38832
7.83736 10 4.32768
3.34972 10 0.640726
7.64995 10 2.92503
7.77578 10 3.35515
4.13804 10 3.32263
5.52019 10 4.21162
2.46189 10 0.272126
5.06463 10 0.0962376
6.45342 10 3.25048
6.09313 10 0.932979
8.7305 10 4.37784
9.24879 10 1.42118
9.17695 10 3.42806
6.79502 10 0.510277
9.05471 10 4.29338
4.67443 10 3.07593
2.80026 10 1.38885
3.25353 10 1.3084
5.84906 10 0.367292
8.80878 10 2.4346
3.95252 10 3.73185
7.3156 10 2.65355
9.9327 10 2.66099
5.9217 10 0.500762
8.62329 10 1.38866
6.61288 10 6.08762
1.75391 10 1.09449
6.95254 10 0.88802
3.80034 10 2.12024
6.76 10 1.78841
1.79493 10 1.53243
9.71043 10 3.96205
6.59335 10 5.20444
5.03952 10 0.410412
2.83018 10 2.76318
8.21591 10 7.63832
9.3565 10 1.7347
9.10566 10 1.39344
7.48867 10 4.11304
2.75858 10 0.456071
2.03949 10 0.645456
8.70681 10 3.02828
3.83341 10 1.10507
7.80747 10 1.91268
9.83122 10 8.74777
7.98015 10 2.84347
4.75176 10 3.8459
9.49166 10 6.62707
8.13125 10 4.76278
9.34033 10 7.23703
8.6972 10 3.77098
2.78709 10 1.87143
5.68576 10 4.281
6.30501 10 1.1294
3.61345 10 1.44527
7.82006 10 7.26937
6.84664 10 3.88387
6.95437 10 3.00051
4.17285 10 3.52291
9.78694 10 1.19391
5.47762 10 5.02761
9.76534 10 0.495908
9.77587 10 3.78572
0.731395 10 0.142527
7.51883 10 7.12499
8.37224 10 6.28326
2.9824 10 2.69023
8.40409 10 2.19334
3.62367 10 3.56319
8.27354 10 1.529
4.49125 10 1.65558
4.63158 10 1.57819
6.438 10 4.51697
7.67201 10 6.80712
8.67823 10 7.56895
5.24698 10 3.19318
1.73046 10 0.147507
7.22935 10 0.687018
5.15039 10 4.17932
4.37194 10 4.32766
9.30026 10 1.5529
6.68517 10 5.03196
4.29902 10 3.71984
8.10906 10 5.15754
9.81224 10 1.05674
2.46661 10 1.10393
6.7904 10 5.33357
8.92439 10 2.5629
8.6002 10 5.5206
8.70749 10 7.73961
9.2128 10 8.35744
8.18805 10 4.23927
6.48228 10 4.14047
8.10612 10 0.427967
7.05133 10 6.83193
2.63484 10 0.936986
7.67948 10 5.77649
6.17294 10 0.738252
0.663069 10 0.366844
6.50522 10 3.59706
9.66466 10 2.78945
7.17562 10 7.11022
1.16101 10 0.461042
9.24317 10 1.08033
7.3171 10 5.73325
7.60658 10 2.25429
8.63765 10 6.70508
1.94196 10 0.742749
6.35623 10 0.207574
1.39365 10 0.253956
9.14834 10 5.11893
9.69744 10 2.90919
8.88767 10 0.512615
5.98006 10 3.15211
8.85129 10 3.92348
7.71358 10 2.19137
6.95944 10 5.65126
2.89092 10 0.297995
4.84345 10 1.54491
5.06062 10 2.05444
8.80984 10 7.06259
5.20677 10 1.65451
7.89612 10 7.66527
7.92167 10 5.86499
8.76305 10 5.81333
7.8445 10 5.4762
5.11659 10 1.90882
9.9056 10 5.26059
5.53688 10 4.91307
9.39821 10 9.04042
9.56858 10 6.18857
9.69488 10 0.710109
7.95882 10 1.41384
9.48624 10 7.33433
7.26412 10 0.236789
5.80177 10 2.75473
7.68427 10 6.15323
8.30729 10 5.5111
8.9763 10 4.1859
9.14886 10 4.10022
9.31616 10 4.49787
2.49818 10 1.37207
4.37905 10 1.19728
3.06397 10 1.15601
6.9646 10 6.72464
7.55673 10 2.39492
3.16173 10 2.26203
9.53832 10 7.52206
6.71445 10 4.46109
6.49604 10 0.585185
8.07446 10 5.90379
8.32342 10 1.85324
2.69359 10 1.21495
6.88886 10 3.14877
9.82775 10 6.32918
5.66502 10 0.279839
5.5835 10 2.16489
8.80753 10 1.36518
3.82501 10 1.44603
4.10346 10 2.45798
7.40017 10 5.12743
5.79651 10 0.693448
5.97892 10 1.8672
5.31176 10 1.3051
7.02168 10 3.21125
6.65526 10 3.19573
7.92127 10 6.60578
5.7432 10 1.29169
3.34706 10 2.78841
2.00769 10 0.857068
7.54957 10 0.444983
3.99325 10 2.742
8.43627 10 3.50289
9.947 10 9.22936
2.46973 10 1.98995
3.9437 10 2.56058
7.62568 10 4.40032
7.06929 10 6.07237
8.28501 10 0.778024
5.5475 10 0.633214
5.09305 10 1.73457
7.72487 10 1.44935
6.31855 10 2.94941
5.64511 10 0.154352
8.23198 10 2.13881
9.3145 10 8.06867
5.3848 10 0.440557
6.13514 10 0.146638
5.05568 10 4.27826
6.70668 10 5.73513
4.06474 10 2.89372
7.1774 10 1.46664
8.91535 10 2.30351
5.23394 10 3.40708
5.52234 10 3.12326
6.44865 10 5.79084
3.21852 10 2.78259
9.55943 10 0.260614
6.30481 10 1.912
9.0656 10 8.03356
0.991 10 0.545668
7.4324 10 0.708965
9.2617 10 5.02411
7.6194 10 4.96685
7.26451 10 4.72368
8.87424 10 6.92191
9.13455 10 3.08625
5.78402 10 1.54818
8.71177 10 2.88293
7.65081 10 4.22937
9.53089 10 6.44834
5.77404 10 0.104392
7.78146 10 7.04508
3.14747 10 1.73827
5.67357 10 3.43801
5.39076 10 3.65953
6.45566 10 6.00207
6.09509 10 5.86559
7.67435 10 1.2487
8.48261 10 5.64621
6.21318 10 5.64996
8.76501 10 5.46776
8.08925 10 2.25635
8.48437 10 2.86337
6.76667 10 2.60207
4.35659 10 2.32549
3.73467 10 0.366991
7.05124 10 1.28966
8.54413 10 1.54581
9.11768 10 0.492416
6.55605 10 2.27798
3.0382 10 0.545673
8.74811 10 4.77686
6.90288 10 1.09033
6.35376 10 5.6996
3.27912 10 1.03313
7.47484 10 6.95071
4.3192 10 1.38756
9.41881 10 3.01126
5.9202 10 5.67498
9.52096 10 5.44925
8.25177 10 3.566
6.03858 10 2.74993
7.70143 10 5.6408
9.69031 10 8.46481
2.24068 10 1.33155
7.58247 10 6.04022
2.24802 10 0.956791
6.13285 10 2.57699
6.68554 10 3.6207
4.69278 10 2.55415
6.31652 10 1.3553
6.38884 10 5.02126
7.26321 10 4.97814
9.72509 10 5.20034
7.06254 10 4.29032
7.55753 10 3.46138
6.67332 10 5.58171
3.37265 10 1.17257
6.05611 10 4.375
5.22807 10 0.574698
5.96309 10 5.81031
9.42482 10 2.59426
8.18389 10 2.77925
8.97794 10 1.79776
7.02077 10 1.66771
8.99222 10 8.19317
3.7944 10 3.26582
9.00596 10 0.413521
5.74691 10 3.75318
7.01355 10 2.16118
8.76581 10 2.55487
9.12538 10 1.8016
1.46787 10 0.974949
6.48169 10 6.14257
8.09493 10 6.5945
6.58149 10 4.71449
7.22436 10 0.501466
4.80751 10 0.604854
7.98589 10 7.57315
9.89321 10 3.06539
7.54458 10 5.63832
5.0746 10 4.61884
5.11174 10 0.830984
2.95319 10 1.33515
8.25756 10 5.37489
8.54141 10 0.261434
9.64735 10 6.37921
8.91636 10 3.0497
3.19091 10 0.719541
8.28913 10 0.646016
7.69309 10 0.334631
7.60213 10 1.84004
9.10055 10 0.898413
8.95716 10 4.96481
3.08412 10 2.86516
2.88577 10 0.972029
1.77488 10 0.416322
8.43944 10 1.65057
8.76593 10 1.10159
2.76333 10 1.03237
3.96683 10 3.90723
9.76893 10 4.99259
8.70213 10 7.1851
8.96729 10 6.11553
6.9352 10 5.98137
7.73967 10 6.67681
3.67162 10 2.17861
8.37585 10 6.93887
7.06132 10 5.91579
5.20123 10 3.78699
5.6086 10 1.58997
9.39528 10 3.88885
8.98985 10 1.93376
2.9984 10 1.04899
6.06341 10 2.35411
9.27637 10 8.76405
9.206 10 3.76542
7.98167 10 2.45928
5.28678 10 2.48948
5.71596 10 5.18042
4.96941 10 3.39994
7.27989 10 2.0337
6.7502 10 3.10791
9.20954 10 2.81122
9.10417 10 1.1046
8.28525 10 5.74736
9.6281 10 5.30273
4.72754 10 4.13734
9.3441 10 4.1766
4.91247 10 1.77001
9.70588 10 9.33329
7.65008 10 1.11027
8.17435 10 1.79235
7.17979 10 6.81328
9.58513 10 0.889251
3.6397 10 2.3453
4.61647 10 4.4334
8.92636 10 7.99668
4.81822 10 4.77423
5.36301 10 5.12804
1.49914 10 0.828564
4.47885 10 3.50663
8.08246 10 3.45889
8.32218 10 3.40172
9.39428 10 8.27539
7.91895 10 4.4641
6.66163 10 1.03937
2.5708 10 1.8134
9.60056 10 1.35212
9.01421 10 3.43328
8.19498 10 0.195729
8.28446 10 1.34846
7.47268 10 2.24912
5.96152 10 3.57889
8.45088 10 4.48143
9.63897 10 8.04986
9.7244 10 8.96761
8.85415 10 7.62663
6.16387 10 2.78392
6.31011 10 1.75458
5.05095 10 3.72531
9.01624 10 5.08805
1.92149 10 1.37798
9.14952 10 5.80929
3.5619 10 2.45502
2.40422 10 0.92517
9.85969 10 4.79995
9.97682 10 2.52221
7.69198 10 4.51094
5.34232 10 4.78418
8.93171 10 1.63807
9.79515 10 8.56667
6.33484 10 4.88591
2.56808 10 2.09272
7.8693 10 5.10177
5.20283 10 5.06185
3.85613 10 3.39648
5.97661 10 0.892467
6.08109 10 3.51051
6.28052 10 0.0181732
9.8924 10 9.09201
8.37959 10 8.08502
9.38869 10 8.83608
1.65605 10 1.54828
4.37435 10 0.27714
6.0617 10 4.52618
7.04212 10 5.78559
3.85059 10 2.40609
3.27776 10 0.0172546
9.47064 10 0.96267
8.93009 10 5.40521
7.79116 10 3.94931
6.85766 10 6.41256
5.51085 10 3.92356
8.7614 10 8.0703
5.3409 10 0.869354
7.47588 10 2.59182
4.27607 10 4.20534
6.04687 10 3.32201
1.95476 10 1.57581
5.91157 10 1.29096
7.60838 10 2.62051
6.75715 10 4.70129
8.66417 10 7.43416
5.24301 10 0.944905
5.4653 10 1.99926
9.53841 10 1.84136
4.77593 10 1.35538
7.14676 10 2.89688
7.09954 10 2.78182
8.85732 10 3.69929
7.09102 10 5.58041
8.59007 10 5.0399
8.9517 10 8.40841
7.01347 10 2.51274
3.5178 10 1.53374
8.9581 10 6.61283
9.84638 10 5.39706
6.84362 10 5.73648
7.77768 10 3.52432
4.3836 10 2.07377
6.91141 10 2.30326
7.0394 10 1.16567
5.26183 10 0.0882715
8.14853 10 1.11441
4.57659 10 2.71569
4.07853 10 3.03389
7.88237 10 1.17779
2.57129 10 0.736098
9.03697 10 6.73054
5.66792 10 4.07851
9.97638 10 6.34241
5.19855 10 2.84312
7.81345 10 5.3458
8.21247 10 5.00369
4.73512 10 1.95787
9.13702 10 2.66464
9.83044 10 8.00569
9.71941 10 6.0296
9.49946 10 3.33453
2.37381 10 1.65178
6.30254 10 3.20946
5.65948 10 2.05146
4.00988 10 3.3826
0.927591 10 0.802373
8.87389 10 5.08632
3.22801 10 0.569059
6.89013 10 1.53579
8.03226 10 4.65343
8.35795 10 4.72205
9.13513 10 5.50194
7.35135 10 3.04242
6.08149 10 5.37756
8.12731 10 2.66391
9.37027 10 6.74962
2.17591 10 1.95817
7.79184 10 3.09745
1.39901 10 1.317
9.91374 10 3.83578
8.58665 10 4.07437
6.42612 10 5.31617
9.23285 10 1.24056
6.95588 10 0.738687
4.55907 10 0.905165
2.97973 10 1.9416
7.23224 10 3.11887
7.80802 10 3.69698
9.00421 10 6.87807
4.92515 10 2.7375
6.77606 10 1.60555
9.81969 10 2.27389
7.61868 10 3.33238
9.97431 10 0.871336
4.14604 10 2.6172
5.31516 10 2.75195
9.04552 10 3.79457
8.89615 10 6.45244
4.93558 10 0.112756
9.25418 10 5.95204
4.80967 10 0.0520915
3.54966 10 3.02096
9.3541 10 3.29556
9.33782 10 3.762
1.40013 10 0.746081
6.6288 10 0.785632
6.1935 10 1.21086
9.39326 10 3.4287
5.81473 10 2.50244
9.56482 10 3.85905
8.74218 10 1.47911
4.81212 10 0.758914
8.03977 10 0.821808
2.05571 10 1.04611
7.66258 10 0.532218
8.14865 10 5.49893
7.48427 10 5.96266
7.24681 10 0.111368
7.48222 10 6.41607
7.22102 10 2.38966
5.42 10 2.65305
8.64032 10 3.38575
9.63012 10 3.73269
9.85974 10 8.96254
3.55074 10 2.67669
6.17294 10 5.52375
1.74616 10 0.94406
3.61871 10 1.20225
7.13329 10 6.94622
7.87603 10 1.61316
8.42604 10 0.724481
2.03925 10 0.285221
8.4679 10 6.60496
7.42977 10 3.831
7.37506 10 0.836419
9.62703 10 8.18746
7.08261 10 2.05424
5.88136 10 2.30043
8.53449 10 3.79212
8.63617 10 0.45937
2.92273 10 0.833731
6.64221 10 6.57242
5.34365 10 1.96173
4.81311 10 0.366068
7.70024 10 5.94183
9.73628 10 4.13751
5.21824 10 4.39642
5.92506 10 3.32067
8.04988 10 7.98022
8.81978 10 3.25632
5.00244 10 1.54159
3.18602 10 2.62579
7.90951 10 3.38119
7.4296 10 1.94109
9.01698 10 0.704284
5.88216 10 5.01057
4.91602 10 1.40655
7.40259 10 0.220897
2.60613 10 1.12037
6.30015 10 4.53423
9.36097 10 0.651865
7.70083 10 0.100533
4.90623 10 4.28461
7.73948 10 4.66469
5.80557 10 4.17964
8.33991 10 1.18754
5.12642 10 1.04944
7.35378 10 1.6125
6.55209 10 5.68489
9.75798 10 2.00628
8.82238 10 4.93753
9.20594 10 7.89526
7.5282 10 5.36544
6.05967 10 2.8786
2.2303 10 2.21318
6.74729 10 2.3813
4.54498 10 3.78191
2.7004 10 0.658869
4.14595 10 0.812815
9.59112 10 2.60647
8.91757 10 5.24356
6.27664 10 6.08044
9.49337 10 1.18635
8.0189 10 5.45143
7.97338 10 5.57533
4.58589 10 1.12993
6.17111 10 1.80424
4.35266 10 1.79204
8.25642 10 0.319562
7.5299 10 1.60514
6.5736 10 4.44542
5.21355 10 2.14116
6.57954 10 1.94911
8.14678 10 0.574289
9.14819 10 3.95192
8.01989 10 7.14597
5.82505 10 2.98689
5.35937 10 0.293548
3.67817 10 1.05453
4.244 10 1.04797
8.89264 10 7.87089
5.46066 10 4.40544
6.88763 10 4.47473
3.81019 10 0.956267
8.42788 10 5.76346
8.3698 10 7.41781
7.65281 10 4.06008
9.24529 10 0.921581
7.36544 10 6.60814
6.92073 10 3.70142
8.24616 10 2.61143
9.47016 10 1.46274
6.76391 10 4.25669
8.98164 10 5.61298
6.33969 10 2.20045
0.802806 10 0.39799
9.6874 10 7.59782
8.54931 10 3.57819
9.14593 10 8.86092
5.83934 10 0.912362
9.78988 10 1.36161
9.55935 10 3.58725
6.08199 10 5.71547
4.26346 10 0.509035
7.17066 10 1.00211
6.60875 10 0.657062
3.18604 10 2.49715
7.67742 10 4.8213
6.1798 10 4.60787
4.9075 10 4.46492
3.87024 10 2.70747
7.14171 10 0.297883
2.86207 10 2.08289
9.33557 10 7.69273
7.98772 10 3.67317
9.57113 10 9.272
7.13216 10 5.05696
4.65091 10 4.27318
0.348589 10 0.0915025
4.12981 10 2.76835
4.24097 10 1.24259
3.44346 10 2.61467
9.47709 10 2.1482
3.41918 10 1.95386
6.43519 10 0.868404
9.72711 10 0.918878
9.37543 10 5.08238
3.61441 10 0.0881466
7.9242 10 4.95985
2.05515 10 1.84556
8.91393 10 7.46972
4.61627 10 3.65714
7.68947 10 3.74032
5.94879 10 2.58612
8.25157 10 3.8172
9.49534 10 6.32381
6.03734 10 4.00196
7.67386 10 3.16218
9.37087 10 6.59962
7.35981 10 3.36994
7.23643 10 6.51774
9.58583 10 5.15605
4.79455 10 1.68664
9.45992 10 0.174387
6.23076 10 2.14241
6.32649 10 0.591821
7.10568 10 5.22046
4.19785 10 3.15592
3.11903 10 1.36625
2.31944 10 1.98942
9.22766 10 2.45106
7.84349 10 2.44973
4.12393 10 2.20426
7.10803 10 3.53776
9.87773 10 9.35085
8.6503 10 6.9229
7.41057 10 2.7993
6.54476 10 5.01409
5.15601 10 2.71318
4.67796 10 0.44229
9.44465 10 1.64033
4.83117 10 3.17715
2.38961 10 1.28767
6.69207 10 3.86408
9.12278 10 6.37373
1.59643 10 0.636585
8.7507 10 2.73938
9.3848 10 6.97752
9.64456 10 8.652
8.62436 10 1.76641
9.4747 10 8.12473
6.40624 10 3.06516
4.07647 10 1.53564
4.11446 10 0.981997
2.99097 10 0.052916
9.44324 10 4.50423
9.58472 10 6.89064
6.30233 10 2.79263
7.37196 10 4.29391
6.41982 10 2.53121
8.42159 10 0.96129
0.996247 10 0.688628
9.11674 10 5.98838
9.76876 10 4.49009
7.24653 10 4.14553
9.01619 10 7.5795
4.50003 10 0.208736
8.98722 10 2.8539
5.50268 10 2.45732
7.56859 10 6.21373
4.88268 10 3.92387
8.76447 10 1.23678
9.64108 10 5.62643
0.839625 10 0.57195
3.48125 10 0.602094
7.70035 10 1.58974
8.58714 10 5.79213
4.88703 10 2.87672
4.80916 10 3.00623
7.76644 10 4.99268
5.39473 10 3.18301
8.80718 10 5.97264
9.9998 10 5.39133
9.48138 10 5.29788
3.84985 10 1.89235
8.63247 10 4.68043
7.07197 10 4.48833
7.90851 10 3.80447
8.95735 10 6.24944
5.16019 10 0.463159
8.63887 10 8.17308
2.33707 10 0.156459
3.72895 10 3.7119
5.51837 10 3.69585
8.17544 10 5.98468
7.78026 10 6.06523
5.1061 10 3.6046
9.55945 10 7.64986
7.91204 10 6.25615
8.71321 10 5.68099
6.50237 10 4.88473
7.48241 10 0.58983
1.12431 10 0.610419
9.47396 10 0.494105
5.67766 10 3.11074
9.14503 10 6.85002
8.30094 10 3.1855
5.78607 10 3.29521
9.12054 10 7.75396
9.51178 10 9.13776
7.55887 10 2.79261
9.0213 10 3.27977
5.96059 10 4.12286
4.99064 10 3.55225
3.53576 10 2.03325
9.10734 10 4.99809
7.55459 10 0.292608
3.58526 10 1.75532
7.95053 10 5.32118
8.51267 10 0.381623
4.83274 10 4.05989
8.34016 10 7.56056
7.79619 10 2.05485
4.00029 10 1.43912
6.71366 10 6.46153
9.82461 10 0.163854
7.91642 10 0.234535
9.99818 10 2.89695
2.66341 10 2.2047
7.00521 10 3.4309
2.14614 10 0.481353
4.32694 10 3.4345
9.20679 10 7.41252
7.51772 10 5.04018
9.78203 10 1.48711
6.75948 10 5.98378
7.85811 10 5.705
8.04297 10 3.80022
6.77667 10 1.9348
8.74803 10 7.31511
5.46525 10 1.27794
7.37662 10 5.34851
7.55271 10 3.05061
3.37736 10 0.373279
3.50019 10 1.26475
3.79046 10 2.9707
4.93139 10 4.89817
6.78005 10 4.07908
6.28869 10 3.75237
9.55259 10 8.42379
7.85218 10 0.509423
9.21882 10 7.14868
9.23267 10 1.70237
7.69524 10 2.47961
7.66527 10 5.40595
1.34115 10 0.863504
3.89599 10 0.438312
1.04918 10 0.268787
8.22636 10 1.00532
3.85387 10 1.75226
8.40696 10 5.90549
9.20219 10 4.24098
7.24694 10 5.30249
9.35232 10 0.471111
1.44667 10 1.18592
8.13607 10 5.35498
9.84998 10 8.22971
8.87887 10 5.52692
5.39861 10 0.165035
5.50908 10 3.26647
8.74989 10 0.182619
5.60693 10 3.57177
2.99756 10 1.6889
9.46153 10 4.65189
1.27021 10 1.26125
8.62369 10 6.42961
9.58972 10 9.42553
9.34822 10 6.45548
2.43162 10 2.10873
9.73801 10 7.90707
3.75046 10 3.12085
6.92342 10 4.61876
5.84246 10 5.23548
4.8466 10 3.69445
7.04596 10 6.59691
7.56788 10 2.0554
6.75498 10 3.73952
9.88652 10 4.19962
7.21159 10 5.83237
6.02568 10 3.0023
8.77198 10 8.42404
3.27457 10 3.04466
6.84422 10 5.04315
9.45159 10 9.34447
9.62161 10 2.01145
4.39658 10 3.16566
5.80636 10 2.18749
7.18118 10 1.28877
9.63342 10 4.6547
9.81113 10 7.04462
9.1898 10 8.57991
9.07882 10 8.70619
2.19485 10 0.330307
8.93987 10 4.74581
6.40201 10 3.37478
6.9411 10 4.32241
8.35148 10 5.25896
6.80397 10 0.825357
2.04839 10 1.6582
7.9285 10 0.749064
4.46271 10 4.43784
9.75071 10 3.39325
8.73663 10 8.72343
9.73603 10 5.48194
7.79006 10 7.40991
1.14763 10 0.816441
9.0513 10 2.36403
1.09149 10 0.94356
8.43744 10 5.09633
3.36754 10 0.912603
9.33772 10 9.14714
7.5248 10 1.33538
5.9499 10 1.59432
6.15347 10 3.04425
5.47925 10 0.876963
8.00206 10 0.629291
3.9552 10 0.235652
1.88272 10 1.78766
1.28311 10 0.00911961
6.79952 10 0.382056
4.1371 10 1.35839
6.19027 10 1.95579
9.89391 10 0.429691
4.58653 10 1.89211
8.53953 10 8.46621
9.84795 10 5.86785
6.04178 10 5.98424
7.3354 10 0.578622
8.62388 10 2.73484
8.3454 10 7.28153
3.19386 10 0.31015
9.88843 10 4.59958
5.81344 10 3.95671
7.54551 10 5.78857
1.50909 10 0.512132
2.07865 10 0.164021
8.65982 10 0.592175
7.21553 10 4.50116
6.52913 10 3.89342
8.02537 10 2.12313
8.66731 10 8.61951
7.81727 10 6.37925
5.41759 10 1.12483
6.95205 10 4.91543
5.45802 10 2.79514
1.89236 10 1.03429
1.92233 10 0.182185
6.61209 10 2.14216
5.757 10 4.47302
5.84351 10 2.00599
9.94701 10 0.135465
8.25887 10 8.16159
9.26969 10 8.92349
0.928134 10 0.400861
9.41016 10 3.15818
5.67055 10 5.38962
4.7515 10 4.48737
2.82475 10 2.5057
7.39538 10 4.79437
3.98638 10 0.925273
9.33701 10 2.85652
9.64315 10 1.67415
7.07876 10 0.861521
8.61186 10 8.29697
8.62468 10 7.92967
1.53214 10 0.139291
5.81115 10 1.07601
8.26587 10 4.3798
9.37654 10 0.879155
2.52369 10 8.93322
4.43446 10 6.52023
7.62525 10 9.99334
2.1218 10 4.47124
0.8709 10 6.64782
0.23083 10 3.12103
1.31558 10 4.72571
2.56907 10 3.65379
5.27447 10 9.8355
0.719545 10 7.47491
2.65031 10 9.34302
1.8149 10 4.72273
0.569323 10 3.24363
0.710009 10 1.87791
3.92966 10 9.40286
2.31445 10 5.60517
6.87291 10 7.61769
5.7617 10 7.47524
1.54924 10 9.39742
1.7058 10 6.5192
3.47892 10 5.94454
4.75288 10 6.30935
6.07732 10 9.87822
3.0186 10 4.27963
6.32248 10 7.32688
6.72165 10 9.52618
0.612394 10 6.53744
4.35753 10 5.88933
0.72832 10 2.27772
5.42355 10 9.72591
3.47633 10 3.49708
0.356029 10 9.74527
3.83371 10 9.53828
3.25688 10 8.9839
3.22334 10 6.38281
4.50645 10 5.47207
2.43021 10 8.15238
3.78788 10 5.36952
6.3668 10 8.73777
3.86424 10 7.34406
7.74056 10 8.62293
4.04621 10 7.7148
2.01674 10 3.51416
0.962443 10 8.10474
3.78113 10 4.06625
6.50495 10 9.67479
7.63388 10 7.83023
4.73872 10 5.22177
7.16884 10 8.77708
0.934876 10 2.71002
0.875331 10 2.18975
8.85053 10 9.8304
6.72387 10 8.28551
0.938728 10 2.32456
6.42403 10 6.92371
2.44222 10 8.44908
2.14139 10 5.2852
5.5289 10 9.39852
5.11826 10 8.35282
5.13186 10 9.01108
0.60561 10 5.65022
5.93623 10 9.64296
3.77285 10 8.75032
0.169222 10 3.25855
3.5322 10 8.73311
6.15721 10 6.26603
0.940083 10 3.19642
8.10675 10 9.10646
1.46549 10 5.35547
5.32695 10 7.1733
4.48496 10 8.26796
1.30419 10 6.27074
3.17442 10 4.2668
0.281637 10 8.0136
4.27717 10 6.8071
3.91314 10 7.68389
0.978838 10 7.48441
1.067 10 5.04706
4.1234 10 8.81008
3.89005 10 8.79671
0.969506 10 2.07235
3.60605 10 7.72934
1.00421 10 6.38576
6.44585 10 7.62318
6.3229 10 8.89529
3.72585 10 8.02388
1.32424 10 3.53896
5.82279 10 7.06364
6.30441 10 8.43805
4.8771 10 9.56477
6.17439 10 7.51038
3.80059 10 4.96923
2.23656 10 8.86525
3.34932 10 3.46
3.33523 10 7.7485
8.25203 10 9.32115
2.58347 10 4.09723
3.23926 10 3.77935
0.533163 10 6.3667
0.818067 10 4.05181
0.378629 10 0.943544
4.27689 10 5.98295
6.02766 10 9.17071
0.721859 10 2.05276
3.00976 10 9.39112
4.24687 10 8.90153
0.201362 10 2.50229
3.64062 10 5.78355
4.32253 10 7.61785
3.24549 10 4.16143
4.63024 10 6.81232
3.31973 10 4.0396
1.89464 10 8.27422
1.35031 10 6.97628
1.99452 10 4.14241
1.26308 10 2.72439
0.273224 10 4.50751
0.764182 10 4.91246
2.27352 10 3.65526
3.3078 10 7.53271
5.02814 10 6.22389
3.32635 10 6.8541
5.98627 10 9.77967
5.87527 10 6.36614
2.11783 10 8.70975
1.10695 10 2.47236
2.17225 10 2.34524
3.73791 10 4.50389
1.61851 10 7.21039
2.84141 10 5.01423
8.51053 10 9.99616
1.6301 10 2.21396
3.3478 10 9.0973
0.309607 10 8.48267
1.54212 10 3.31812
4.03709 10 7.96674
5.57294 10 5.82763
7.04543 10 7.14564
3.54725 10 8.33578
7.24969 10 7.9399
2.63107 10 8.56654
1.12804 10 2.31658
0.56481 10 1.1121
0.814349 10 7.05118
4.24589 10 6.2701
6.34878 10 6.6012
1.22145 10 5.24673
3.63212 10 4.65357
2.98646 10 4.57928
4.42609 10 6.88264
1.66875 10 9.02974
7.75884 10 8.78079
5.41302 10 6.94259
8.36391 10 8.38645
6.16516 10 9.98545
2.92267 10 4.45164
1.36927 10 5.91477
4.21174 10 9.16002
1.61977 10 8.56962
2.38205 10 7.53744
4.90022 10 8.08587
3.0761 10 6.00986
0.162296 10 1.73432
5.62384 10 9.55124
5.20033 10 7.64384
1.31912 10 9.17396
4.04451 10 6.46125
3.27412 10 7.85483
4.1117 10 4.45693
1.50828 10 9.54049
2.839 10 3.51074
6.17848 10 9.59076
4.96717 10 8.33023
5.87012 10 6.70703
6.57689 10 9.1033
4.95034 10 7.50034
3.58589 10 5.36557
8.40224 10 9.2813
1.51778 10 5.22444
3.70533 10 5.27331
0.832406 10 9.09164
2.13234 10 5.95578
0.921209 10 8.94575
0.360154 10 5.32132
4.34318 10 6.99715
0.341164 10 0.455058
5.44825 10 8.71604
8.21812 10 9.46912
1.18282 10 4.37168
0.21527 10 2.97078
2.08406 10 7.33387
1.63627 10 6.13027
6.65519 10 9.73981
0.797115 10 8.65084
5.20103 10 5.43188
0.555401 10 0.622921
0.646569 10 3.39626
6.16585 10 6.76312
1.14061 10 4.8869
3.68901 10 9.98546
0.0746194 10 6.21717
4.47932 10 5.31143
2.30092 10 6.69292
3.83582 10 3.87419
2.23809 10 3.93136
0.563756 10 2.03709
3.23338 10 9.3642
0.794227 10 8.14635
1.07284 10 5.42991
1.7638 10 7.18123
7.41994 10 7.51884
6.09571 10 7.61811
2.54309 10 5.6073
0.108195 10 9.40777
2.02969 10 9.03172
4.94507 10 7.97184
1.08219 10 8.0124
3.17548 10 8.52404
5.04619 10 5.60279
3.83213 10 8.36273
2.66328 10 4.61156
6.05136 10 6.50244
0.95048 10 5.36206
0.544631 10 1.27715
0.839344 10 3.41426
4.40358 10 6.07722
2.51184 10 3.52422
3.2356 10 3.23702
1.43693 10 5.78131
2.26406 10 6.04644
7.06678 10 7.77162
7.33119 10 8.75472
4.26459 10 5.78935
2.66343 10 3.99562
3.54415 10 6.12879
7.13719 10 8.32164
2.52641 10 4.86586
0.58463 10 5.22908
0.380897 10 2.40032
0.487473 10 4.64633
5.67431 10 7.70632
1.33505 10 4.32902
7.0114 10 9.49533
6.5789 10 9.37669
0.904775 10 1.77285
0.0794198 10 5.79187
3.148 10 5.59717
4.91421 10 5.61351
2.72657 10 5.58069
2.72395 10 4.76585
1.51177 10 8.72347
0.286398 10 3.83452
1.86989 10 7.32312
2.69302 10 3.19156
0.31683 10 1.12479
3.40945 10 6.11475
3.20761 10 6.54836
2.07754 10 9.42222
3.43255 10 9.32749
3.36345 10 3.74585
2.46211 10 6.90982
0.885898 10 4.77889
9.62605 10 9.93144
1.47543 10 9.99386
1.60014 10 6.43093
3.92361 10 5.47617
1.96081 10 2.3848
1.71584 10 7.83999
2.57447 10 5.90278
1.30214 10 7.60651
0.377653 10 0.594961
4.35696 10 6.64088
6.22053 10 9.81326
1.53823 10 6.03418
3.9188 10 6.71364
6.12698 10 7.74556
0.304182 10 1.77179
2.70725 10 2.71168
0.0209254 10 8.55073
5.64179 10 6.0975
1.29136 10 8.14065
0.371643 10 5.18717
6.31552 10 8.26502
1.95523 10 9.376
1.06681 10 3.56605
8.05369 10 8.45733
1.79897 10 3.40895
0.904601 10 0.99592
3.91313 10 5.31755
0.277924 10 5.08308
5.96795 10 6.82128
0.350928 10 9.42008
3.93032 10 8.9192
0.885969 10 5.61549
1.65818 10 6.28859
4.30901 10 9.28821
4.12028 10 5.92092
4.09743 10 8.23912
2.36406 10 9.98928
1.20841 10 2.15463
2.79572 10 4.88571
0.522438 10 7.49393
1.40722 10 7.23719
3.86724 10 7.061
2.03217 10 4.63318
8.17886 10 8.99579
6.24529 10 9.00803
2.09222 10 8.02591
2.53126 10 4.2863
3.71478 10 6.57437
1.14712 10 4.54133
4.30179 10 7.75413
3.6758 10 9.39647
1.28977 10 8.4909
2.60832 10 6.25564
1.18395 10 6.19762
4.82715 10 7.04429
4.63673 10 6.47223
0.839381 10 2.88763
2.63407 10 6.39524
0.388545 10 3.23481
3.77026 10 6.29918
1.58408 10 3.04456
2.36843 10 3.7457
8.99973 10 9.00657
4.13131 10 5.43715
5.32315 10 5.76307
1.01941 10 1.554
5.43954 10 5.80188
3.47424 10 6.30098
1.24308 10 9.51396
2.02151 10 5.22078
6.37298 10 8.1144
1.4444 10 7.90111
7.63811 10 9.38005
3.09858 10 5.42679
6.98635 10 9.6442
3.85788 10 5.0942
0.377246 10 9.07127
0.816913 10 7.22691
0.787989 10 3.78419
1.6069 10 7.95122
1.93377 10 9.19099
1.5991 10 4.41314
1.8996 10 5.0632
0.531624 10 8.69006
3.2176 10 5.98358
6.96153 10 9.02386
5.79897 10 7.75982
1.31973 10 5.39655
0.444405 10 8.24941
4.60739 10 8.33069
4.6257 10 7.80259
2.17493 10 9.88249
0.567296 10 6.14491
0.632414 10 1.50276
0.397054 10 5.59332
5.14518 10 9.90894
2.92735 10 6.03926
3.03164 10 5.86706
4.04455 10 4.7347
6.71045 10 9.27173
8.20179 10 8.37511
3.33945 10 6.62081
4.55358 10 8.16579
1.56661 10 4.80815
5.21729 10 7.26675
0.718507 10 6.65482
1.54413 10 8.95403
3.12425 10 9.62688
7.96683 10 8.34559
4.49694 10 6.40716
1.69696 10 3.11809
2.58485 10 9.22292
7.42248 10 9.4805
2.0671 10 2.68931
1.81469 10 6.63452
0.107552 10 3.38189
1.49858 10 3.70473
1.87005 10 6.48425
0.196173 10 5.21944
2.63809 10 3.36707
3.53187 10 8.59612
5.85005 10 7.9256
2.57649 10 5.16968
6.33394 10 7.81168
1.6279 10 8.33655
8.17488 10 8.56386
2.20474 10 4.26513
2.28425 10 3.21047
0.0304805 10 1.70361
6.77227 10 6.85425
5.53199 10 7.10774
6.5156 10 6.63357
5.80317 10 6.85279
0.68373 10 4.31072
5.71735 10 7.86705
1.86318 10 7.70992
0.485681 10 9.3845
7.2409 10 9.36138
2.52361 10 9.08172
3.64202 10 7.91839
3.34129 10 3.58997
2.41414 10 7.30814
5.6239 10 6.33065
5.45104 10 6.65998
3.22906 10 4.4956
1.90789 10 5.83062
1.33852 10 2.60506
1.14783 10 5.6392
3.64549 10 5.09677
1.80554 10 8.00458
7.87864 10 8.49017
1.38297 10 7.773
0.529722 10 9.50846
1.79004 10 4.92078
6.66262 10 8.82651
0.381116 10 4.86416
6.96188 10 9.17396
9.04718 10 9.55543
4.21073 10 6.40619
7.01194 10 8.41534
3.25218 10 5.67949
1.27386 10 8.83522
7.04412 10 9.37265
9.7646 10 9.99903
0.83814 10 1.89657
3.71602 10 4.20016
2.96896 10 5.10815
0.760986 10 5.47449
2.7909 10 9.99807
2.76311 10 9.80594
4.30813 10 4.88204
0.360407 10 4.20087
4.42358 10 9.61272
1.29505 10 1.89116
1.45731 10 6.88765
2.79542 10 6.45738
2.42462 10 3.99406
0.561552 10 3.90586
6.2938 10 7.99161
4.54629 10 6.98046
0.599404 10 5.52034
2.52552 10 7.41938
2.97211 10 7.80786
4.68769 10 6.64254
4.76964 10 6.06257
4.99098 10 5.94645
0.380771 10 8.60657
0.735418 10 1.07374
5.16598 10 9.39588
1.95365 10 4.75616
3.17295 10 6.16264
0.0156466 10 4.55228
0.975297 10 8.40235
2.96366 10 7.36419
4.47249 10 8.49642
0.68535 10 3.54656
3.01942 10 3.52313
2.86186 10 8.49804
0.136186 10 9.85799
0.141467 10 4.68957
2.81244 10 7.96204
1.35989 10 2.20145
0.683458 10 3.94486
1.80853 10 2.74224
3.72142 10 6.7058
6.33467 10 8.59901
6.59973 10 7.22959
2.39755 10 8.73595
4.87182 10 9.35452
4.06342 10 9.95855
7.50909 10 9.63889
4.50408 10 7.57748
0.122262 10 0.19059
5.55938 10 8.62143
2.06563 10 8.44391
1.43039 10 7.64144
2.15934 10 3.57443
1.73102 10 5.88114
3.1829 10 7.63701
1.04504 10 7.12935
2.68946 10 2.96677
2.23612 10 2.61106
1.84099 10 5.60045
1.25172 10 3.8435
3.86276 10 9.82276
1.01111 10 6.82468
2.7251 10 6.74697
4.99255 10 9.51695
5.32101 10 8.16732
0.914485 10 6.18554
0.580754 10 9.67089
5.01904 10 5.18786
4.51954 10 5.9722
4.73001 10 8.09997
1.3744 10 5.05726
1.87445 10 4.30136
3.93713 10 4.14823
1.33609 10 8.96229
4.67765 10 5.75891
4.56017 10 9.56544
2.88183 10 9.44824
9.49226 10 9.98895
2.93963 10 5.46543
1.24608 10 9.77456
4.89512 10 8.57843
4.15085 10 4.32506
4.55583 10 5.05294
0.172134 10 8.15995
3.97884 10 5.99407
7.55525 10 9.26665
0.795921 10 8.95368
1.83663 10 7.50795
1.92506 10 6.08308
0.3956 10 8.78534
6.29438 10 6.41281
0.162499 10 3.99527
9.10251 10 9.75417
3.71799 10 7.43012
0.522541 10 2.437
4.99105 10 7.66751
8.585 10 9.55254
5.91377 10 7.32989
1.3261 10 9.37767
0.99982 10 3.96072
0.932827 10 1.34966
3.71836 10 7.01383
5.56734 10 9.76735
5.79655 10 7.27349
1.96226 10 7.58873
2.22243 10 8.03918
1.07483 10 4.29756
1.76482 10 6.83237
3.77774 10 7.20379
5.47284 10 7.54339
1.64539 10 8.73934
1.08785 10 2.68534
4.76718 10 8.92043
3.84811 10 5.97423
9.03983 10 9.41412
5.46241 10 8.84285
5.35505 10 9.06451
3.76729 10 7.64123
3.07119 10 7.92266
1.09032 10 5.3012
5.95252 10 8.98571
6.54726 10 8.70852
5.97267 10 6.18095
6.84009 10 8.63853
5.89552 10 8.37458
4.70983 10 5.4997
6.07512 10 9.42038
2.5829 10 4.99013
0.12188 10 2.86862
7.4895 10 8.06007
1.29466 10 3.99605
5.34879 10 7.32341
2.06321 10 3.78168
3.44317 10 5.09013
3.34068 10 7.1919
0.537732 10 1.90771
2.80936 10 3.8328
6.51882 10 7.80934
1.28692 10 2.32307
6.06668 10 6.65263
2.41993 10 3.19605
0.508153 10 5.94815
3.63242 10 7.53597
5.58247 10 5.7002
3.77539 10 9.69622
3.96325 10 9.23709
3.05648 10 9.51024
5.77089 10 6.45119
3.41059 10 3.92062
5.38617 10 7.77944
1.35259 10 6.46096
7.51929 10 7.90554
5.97658 10 7.04341
5.24429 10 8.62409
3.16691 10 3.6578
1.36524 10 5.23441
8.11132 10 9.24442
0.903228 10 3.87784
6.54254 10 8.94123
1.0535 10 5.81557
4.96962 10 9.80642
3.99465 10 5.86221
5.18108 10 9.669
6.02116 10 6.30263
2.08155 10 9.27504
0.189394 10 2.64659
0.602234 10 0.746161
8.31162 10 8.63851
1.86922 10 2.974
5.48029 10 8.12662
2.80766 10 5.23154
4.2959 10 8.6096
1.44703 10 2.32725
2.85098 10 3.19313
3.25477 10 9.69339
1.99494 10 5.64356
2.73445 10 5.09563
5.31658 10 7.03144
4.01215 10 7.57783
7.53439 10 8.76944
6.53791 10 9.90641
3.9276 10 4.56595
4.3013 10 4.65304
5.14944 10 6.75439
3.47314 10 4.64412
2.97294 10 5.64787
0.71778 10 1.656
5.51692 10 7.23188
0.810376 10 5.33403
4.20832 10 8.49152
6.15201 10 9.26813
1.97396 10 7.9476
0.622411 10 5.10166
5.31927 10 8.31914
8.86926 10 9.31054
2.64961 10 4.32875
0.788566 10 4.20803
3.11002 10 7.11358
2.83964 10 3.32154
9.33732 10 9.89414
0.299396 10 7.53898
1.5214 10 1.70724
5.95498 10 8.66684
1.4958 10 8.48037
2.41668 10 4.39453
1.97967 10 9.56175
0.036928 10 4.11254
2.30335 10 9.73556
0.543549 10 6.75342
3.43453 10 4.93991
1.44776 10 8.28516
2.37158 10 2.92871
5.66056 10 8.54031
9.64927 10 9.68398
5.65346 10 7.55826
1.24752 10 2.96124
3.11005 10 4.55542
2.81436 10 5.36167
0.117966 10 9.71559
2.34948 10 9.33496
9.48983 10 9.64277
3.18694 10 9.51819
1.06061 10 9.89337
3.2566 10 4.82121
8.57817 10 8.82899
5.81233 10 9.50381
0.00456194 10 0.830652
7.68041 10 9.72164
0.274579 10 9.98322
0.873714 10 1.23083
4.04448 10 7.29165
0.500778 10 8.98239
6.52119 10 9.25379
6.21829 10 8.70966
3.27788 10 8.44445
0.799743 10 1.42404
0.918575 10 9.9739
2.34595 10 8.27275
2.86989 10 8.34117
2.67129 10 7.50695
0.991971 10 9.36871
0.0492004 10 0.604963
3.03859 10 3.2836
1.62135 10 4.26164
1.80446 10 6.98955
2.93174 10 6.63499
2.80421 10 4.55502
5.11218 10 6.35464
0.0186303 10 2.14521
2.48285 10 6.04119
5.96445 10 8.01656
2.12888 10 7.8385
1.10834 10 9.4459
0.19762 10 5.37274
1.02424 10 7.77377
2.53189 10 3.81876
4.40437 10 5.15171
4.30203 10 9.72755
4.52774 10 7.32599
6.67078 10 9.87331
7.11928 10 8.96037
1.24271 10 9.94569
4.37887 10 9.49109
7.40636 10 9.73275
1.71178 10 9.32547
8.62823 10 9.71379
1.502 10 1.52788
1.77895 10 6.2414
0.157872 10 7.8803
8.04978 10 8.21832
0.26057 10 6.41869
2.68116 10 3.49869
0.213792 10 2.05417
1.76269 10 8.69936
8.73352 10 8.86495
0.17841 10 8.61586
0.00132669 10 8.08576
2.66047 10 7.96408
3.02966 10 8.40542
2.0998 10 5.04177
5.4469 10 7.90731
1.09336 10 9.71872
9.18042 10 9.61487
4.43875 10 4.67956
6.77484 10 7.00151
8.66697 10 8.969
0.345235 10 4.40264
5.32938 10 6.76957
4.0162 10 6.27606
5.7902 10 9.91527
4.78775 10 5.34776
3.93041 10 8.13646
2.97259 10 9.82798
0.287416 10 6.25301
2.21156 10 3.79506
2.08961 10 6.82293
2.97342 10 8.04457
2.43492 10 9.22592
3.08466 10 8.82573
2.50788 10 8.66451
3.55547 10 6.66738
2.13962 10 7.15593
0.270136 10 9.28717
6.40423 10 9.55249
1.89995 10 3.09773
0.385401 10 7.40988
2.7197 10 9.20236
4.85582 10 7.63908
0.149316 10 8.92878
1.50721 10 1.85467
5.86118 10 8.09183
6.46328 10 8.20204
1.58773 10 5.52966
0.648113 10 7.12055
1.09625 10 8.57127
8.07555 10 9.47918
8.28036 10 8.76423
0.460342 10 4.48568
4.85147 10 9.03973
8.66385 10 9.8948
0.945507 10 9.18169
0.724371 10 3.25685
8.70465 10 9.32718
2.93936 10 3.69647
7.94979 10 9.08881
0.260412 10 3.65836
7.60821 10 7.64824
4.12127 10 6.57199
2.86485 10 6.88868
4.95555 10 7.81753
2.75453 10 6.31606
0.658475 10 1.37396
4.19874 10 9.50071
3.32593 10 9.48632
1.58077 10 7.77883
4.54846 10 4.79066
5.95796 10 7.71007
2.77219 10 8.91371
0.489639 10 2.18203
0.273574 10 2.81745
2.91417 10 3.03656
3.4651 10 8.48928
0.692737 10 9.56891
0.15404 10 8.79645
4.87626 10 9.17615
3.47971 10 3.80606
1.16172 10 5.9084
4.79322 10 9.90572
4.34326 10 8.46987
1.59889 10 5.38627
7.27563 10 9.56984
1.95307 10 3.8752
2.22912 10 6.42948
0.124264 10 8.00868
5.76357 10 6.16276
4.14341 10 9.86153
3.07551 10 6.92739
1.21365 10 9.64765
0.730952 10 6.27949
8.51537 10 9.43613
6.2748 10 6.86078
0.139904 10 3.73506
1.4793 10 4.47706
2.07418 10 8.29588
0.617236 10 3.70025
0.648396 10 4.51338
0.92206 10 8.67079
0.620363 10 2.1715
6.97291 10 8.09326
1.28724 10 7.28606
2.78257 10 7.59684
1.22361 10 7.40659
5.34106 10 6.50583
5.60892 10 7.93755
6.15373 10 7.12329
2.17477 10 9.10276
1.86209 10 8.39999
4.66131 10 6.12381
1.52753 10 9.7636
1.43723 10 9.13556
1.87508 10 2.62668
2.77125 10 7.35778
6.52884 10 7.442
3.10242 10 7.79073
1.29339 10 3.68958
0.283802 10 6.72843
0.668878 10 2.74604
1.77432 10 2.41361
5.67469 10 7.19113
3.3411 10 9.99482
4.0695 10 4.19319
6.51363 10 9.49223
0.839503 10 8.79748
2.35226 10 8.04521
2.98477 10 5.29003
5.55934 10 7.79447
6.86254 10 7.31568
3.0002 10 4.88722
1.66099 10 2.93463
0.723636 10 7.82808
7.23249 10 8.49329
0.122511 10 5.10976
0.0627339 10 4.8768
0.132451 10 4.45785
9.71927 10 9.81182
6.1296 10 6.1345
4.84577 10 5.90143
6.65363 10 7.94706
0.376381 10 8.9295
3.30239 10 5.48877
3.5598 10 6.98158
4.96816 10 5.38719
1.67126 10 1.68859
5.03639 10 7.21787
0.896971 10 8.22278
1.10806 10 8.79317
8.5662 10 9.30581
2.70101 10 8.77283
5.98603 10 7.17472
1.03924 10 4.15568
0.749291 10 4.74356
1.85535 10 4.43458
1.57419 10 4.05968
0.270888 10 5.79628
0.0807382 10 2.99873
1.15065 10 1.3509
2.20076 10 6.87559
1.39628 10 3.34792
2.34433 10 4.52507
1.17563 10 6.55064
1.91943 10 3.59778
8.02299 10 9.63035
5.30259 10 8.9375
7.23864 10 8.21876
6.72351 10 7.40691
8.63597 10 9.17814
8.25271 10 9.16399
5.48786 10 5.61355
5.36644 10 9.50806
3.64769 10 6.20331
0.89795 10 3.69873
1.45996 10 3.55449
3.24681 10 8.14369
0.89312 10 8.53139
0.401461 10 6.32948
3.24677 10 5.0763
0.942666 10 9.53079
0.326611 10 6.58644
7.34275 10 7.38365
3.06296 10 6.54383
0.134571 10 3.56376
2.73896 10 8.48061
6.93268 10 7.00637
7.37655 10 8.48205
2.14262 10 2.50582
6.85025 10 7.80313
4.24297 10 4.43651
5.56701 10 6.93565
4.6931 10 4.87657
0.620704 10 2.91666
0.50711 10 5.73521
2.2124 10 6.56509
4.59742 10 5.87516
3.54036 10 7.17645
6.9645 10 7.94902
1.86855 10 6.35496
6.49299 10 7.12248
0.382004 10 5.89431
0.265258 10 5.4969
2.32837 10 3.34777
0.571892 10 4.39789
8.34874 10 9.84015
0.117337 10 6.43034
7.92527 10 9.51902
8.34844 10 9.47714
3.86982 10 4.74441
7.89652 10 9.89539
7.50301 10 8.25321
5.00739 10 9.24435
2.72674 10 8.16182
2.45904 10 9.56959
3.1782 10 7.26317
2.72026 10 4.12334
0.780629 10 6.4105
5.55833 10 8.93371
4.72522 10 8.70851
0.169455 10 5.61704
3.15477 10 3.34193
2.567 10 6.56174
2.39049 10 4.67871
5.30001 10 7.96488
