ply
format ascii 1.0
comment Created by Open3D
element vertex 2046
property double x
property double y
property double z
end_header
-5.33504 7.50801 2.32403
-1.94879 2.76345 19.8339
-2.97682 8.19062 3.72852
-4.01881 8.4591 1.56508
-1.86382 4.46477 15.3467
-3.66593 7.23728 5.35834
-1.57473 3.38559 18.666
-4.68169 7.89264 2.18402
-3.14279 6.9755 6.78819
-2.96189 5.86751 10.0362
-2.95366 7.03172 6.89684
-3.1126 6.37565 8.45322
-2.79452 5.83476 10.3557
-4.21662 6.07469 7.74532
-4.20288 8.52808 1.12457
-4.0934 6.90122 5.67838
-2.60277 7.5588 5.95425
-4.14532 6.7012 6.1481
-2.48176 5.24532 12.3822
-2.20208 5.52909 11.9998
-3.47127 5.05338 11.5371
-4.78008 8.03153 1.67247
-2.87735 4.31019 14.3674
-3.03924 6.02683 9.4984
-4.13119 8.35764 1.6847
-2.24393 3.79817 16.6266
-2.61192 5.26652 12.1453
-2.63427 5.14509 12.4431
-3.33291 6.46424 7.90966
-4.71681 8.15786 1.41781
-2.76271 6.60662 8.3106
-2.18887 6.10169 10.4684
-4.99479 6.91208 4.406
-0.197189 0.318721 28.8655
-3.31495 6.17729 8.71101
-3.76753 7.97521 3.22116
-3.02451 5.969 9.67522
-5.52116 8.1189 0.41412
-1.18051 3.07129 20.0602
-3.48849 9.09535 0.574452
-5.54668 7.74576 1.38876
-3.0076 6.28171 8.85223
-4.30623 8.71831 0.467223
-1.51345 2.45642 21.2651
-4.70859 7.38144 3.53043
-3.29328 5.16349 11.4846
-4.28809 7.21549 4.55937
-5.19147 8.28449 0.420579
-4.47276 6.251 6.91496
-3.20684 8.47334 2.6462
-3.04783 9.36806 0.444052
-1.84305 5.59622 12.3133
-3.23206 9.38869 0.134172
-4.12783 8.67064 0.842244
-3.64923 8.4097 2.2084
-2.51846 6.60202 8.65986
-4.63509 6.76088 5.3112
-2.9809 7.97972 4.29366
-2.79845 7.57607 5.63766
-2.01251 5.071 13.501
-3.49581 7.88121 3.85023
-2.89259 5.7012 10.5819
-5.68036 8.08708 0.280698
-4.51876 6.91922 5.04311
-4.02775 7.67485 3.67519
-1.70012 2.66279 20.4492
-4.51483 6.48344 6.2279
-5.65336 7.9417 0.711363
-2.69305 8.23611 3.99671
-4.42446 7.33199 4.05604
-1.67232 3.58601 17.989
-1.73663 4.19375 16.2556
-2.02252 5.73219 11.6978
-3.28509 5.48764 10.6186
-4.38365 7.97627 2.36867
-4.46873 7.85505 2.57942
-2.89872 7.11653 6.74308
-2.20089 5.96203 10.8298
-5.64763 8.01595 0.518334
-3.53463 7.02657 6.10963
-2.95185 5.23975 11.749
-1.99648 5.24258 13.0588
-2.53059 5.03495 12.8842
-2.56805 3.57419 16.7858
-3.3752 8.47552 2.40813
-3.4427 6.36388 8.02989
-1.19125 1.95418 23.0687
-2.69892 4.32212 14.5812
-2.45392 7.46763 6.40622
-3.54256 7.71291 4.24123
-4.85263 7.03266 4.27572
-3.8644 8.98742 0.348185
-3.20385 5.80429 9.87368
-2.25275 3.60232 17.1445
-2.72589 7.40875 6.19054
-2.62612 6.31519 9.28767
-5.49491 7.67956 1.63932
-2.40401 5.79448 11.0032
-3.21396 5.45097 10.8159
-4.95093 8.47966 0.224068
-1.90645 3.54164 17.7862
-4.03841 6.52821 6.76369
-2.94186 5.17926 11.9265
-3.92064 7.24055 4.99826
-3.47285 5.8735 9.31545
-4.20959 8.00203 2.53899
-4.48523 7.37141 3.86556
-0.630869 1.72993 24.4483
-3.50458 6.26689 8.20704
-2.74504 7.53401 5.82514
-0.667165 1.46869 25.1052
-3.84214 8.49247 1.71838
-4.24527 6.53177 6.4688
-1.26161 3.45819 18.9013
-2.68618 4.85871 13.1466
-2.61738 6.78503 8.02818
-3.47484 7.53859 4.80638
-5.25474 8.38279 0.0673268
-4.07527 7.39002 4.38051
-0.652339 1.54382 24.9224
-1.88491 3.43312 18.1096
-3.87932 5.41155 10.0051
-2.71149 6.04907 9.89014
-2.12495 3.12956 18.6002
-0.87762 2.34719 22.4375
-3.34916 5.9713 9.22132
-3.69196 7.36633 4.97318
-1.70626 3.89933 17.0943
-2.33815 3.2631 17.9448
-3.45739 6.46304 7.74126
-4.05565 7.76674 3.38802
-3.28784 6.76648 7.15385
-3.5854 9.12928 0.34898
-2.05786 2.99135 19.0667
-3.41676 7.63176 4.63434
-3.66578 6.73803 6.70968
-1.35457 3.61768 18.3415
-1.97843 3.13722 18.7815
-2.44093 5.40975 11.9935
-4.58621 8.65912 0.241333
-3.67482 7.5887 4.39503
-1.57455 2.8812 20.0313
-0.73545 1.62166 24.5971
-0.611867 0.950117 26.5849
-4.28339 6.26727 7.13206
-1.51691 2.66409 20.6983
-2.51586 6.13561 9.92572
-3.39561 8.54198 2.20015
-3.64836 6.08561 8.49938
-4.06538 8.63844 1.01549
-3.69138 7.83278 3.71163
-3.4771 5.56832 10.1355
-2.92127 6.5151 8.33964
-4.00303 7.98423 2.87199
-3.14006 4.74495 12.8286
-3.02301 7.55785 5.37731
-4.08484 7.05093 5.28502
-1.88955 2.86717 19.6349
-2.60091 5.52149 11.4705
-3.29147 4.65432 12.8651
-3.61619 8.60134 1.73532
-5.13284 7.78858 1.84355
-2.16213 3.58647 17.3123
-5.02946 7.24066 3.46895
-2.36412 5.66071 11.4202
-6.00006 6.1648 0
-3.25552 3.4233 0
-0.544761 0.597807 0
-3.49447 3.12753 0
-2.77909 2.96898 0
-4.5175 5.97255 0
-3.61174 2.89404 0
-6.76501 6.19147 0
-7.62694 5.86502 0
-4.51607 3.60553 0
-5.66497 6.45947 0
-6.89861 6.77486 0
-7.24746 5.46806 0
-5.55184 4.4518 0
-5.88085 6.71247 0
-5.79772 6.22768 0
-4.5716 3.40448 0
-4.16222 5.48069 0
-6.09758 6.46064 0
-5.36022 5.20285 0
-2.62946 2.18281 0
-3.08679 3.94417 0
-2.45717 1.91146 0
-3.44372 4.18978 0
-6.26977 6.61786 0
-0.960419 0.947088 0
-3.45411 3.7192 0
-5.68644 5.42581 0
-6.88821 5.93361 0
-4.5382 5.14085 0
-3.65818 3.21004 0
-2.30165 3.00556 0
-5.22919 4.41089 0
-7.78711 5.70976 0
-6.09539 7.46812 0
-7.6949 6.07359 0
-4.70457 5.06745 0
-5.81213 7.09751 0
-4.26688 3.21856 0
-5.2429 5.37701 0
-4.30456 4.88017 0
-6.57351 6.86282 0
-7.90269 5.89115 0
-4.32365 3.61288 0
-6.50211 7.22593 0
-4.78601 3.57541 0
-3.14338 2.77595 0
-5.98262 7.69239 0
-5.50421 6.09186 0
-5.49904 4.64645 0
-4.54356 3.93064 0
-6.40288 5.96301 0
-3.67707 4.64926 0
-4.70547 4.79009 0
-3.95986 5.38811 0
-4.45028 5.53777 0
-7.57366 5.6317 0
-2.53983 2.42935 0
-3.5745 3.56404 0
-6.08524 4.61474 0
-3.20004 4.15697 0
-1.26476 1.58414 0
-7.47035 6.04685 0
-5.811 5.65224 0
-5.54171 4.17227 0
-5.9793 5.23041 0
-5.22779 6.95532 0
-5.39932 4.31495 0
-3.98874 4.24482 0
-6.78798 6.48956 0
-4.92726 4.21131 0
-6.60161 4.8933 0
-6.5023 5.64024 0
-5.07296 3.88766 0
-6.02575 7.24187 0
-4.6933 5.58544 0
-3.86173 4.86122 0
-5.91955 7.40391 0
-5.57409 6.63832 0
-1.75549 1.85034 0
-5.28139 5.69535 0
-1.68392 1.38978 0
-3.82434 2.93917 0
-4.50029 4.44286 0
-5.57373 7.11516 0
-1.34639 1.03379 0
-1.98519 1.92222 0
-4.23156 4.67075 0
-5.26868 6.00981 0
-6.46144 5.24247 0
-7.49003 6.45937 0
-5.58322 7.66031 0
-5.38211 4.87132 0
-2.85864 2.28357 0
-5.42887 6.3806 0
-6.72125 5.4598 0
-5.10849 6.7904 0
-3.07433 3.53023 0
-3.37794 2.8606 0
-5.30662 6.75788 0
-4.01536 4.67758 0
-4.93938 6.46719 0
-6.96796 6.21269 0
-1.79025 2.03698 0
-3.60053 4.47258 0
-4.99163 6.06997 0
-5.54482 5.27166 0
-6.30755 7.59262 0
-5.20883 4.75808 0
-6.22156 5.44514 0
-2.49672 2.67089 0
-5.86988 6.41586 0
-4.80962 4.61237 0
-1.86719 1.3585 0
-5.27048 6.53278 0
-3.92277 3.93561 0
-4.35632 5.24027 0
-1.51228 1.55638 0
-6.41012 4.77663 0
-6.2376 5.11765 0
-5.06959 5.27159 0
-5.84289 5.05083 0
-6.57052 6.27581 0
-7.12843 5.80038 0
-4.98077 4.44466 0
-2.82162 2.47822 0
-5.61524 5.0735 0
-2.05997 2.34477 0
-6.27321 6.82254 0
-7.18493 6.00065 0
-2.24914 2.2716 0
-4.81693 6.17261 0
-1.14842 0.995386 0
-1.73246 1.64339 0
-5.69344 5.99216 0
-5.92705 5.47039 0
-5.85724 7.87096 0
-4.72406 4.44097 0
-2.87393 3.58642 0
-5.39989 4.02127 0
-0.548187 0.39906 0
-4.89045 5.4716 0
-1.08968 1.25594 0
-2.59367 3.1263 0
-3.16271 2.53462 0
-7.31254 5.72106 0
-3.94081 3.20038 0
-4.35293 4.30705 0
-6.05151 5.0503 0
-0.833865 0.716425 0
-2.87702 3.37703 0
-2.44457 2.25741 0
-4.30525 4.03978 0
-3.44045 3.35426 0
-3.23149 3.70344 0
-6.77452 5.23047 0
-4.48848 4.13808 0
-6.09357 5.67348 0
-6.70718 6.73744 0
-0.356715 0.397003 0
-6.40621 5.47032 0
-4.10481 3.07314 0
-4.39044 5.72466 0
-4.94498 4.90704 0
-4.88392 5.8877 0
-7.13156 6.32206 0
-1.42626 1.29115 0
-6.37112 6.32017 0
-6.73948 5.66631 0
-6.22592 7.09661 0
-5.96014 5.91273 0
-7.34983 6.34617 0
-3.82206 3.33745 0
-7.01641 6.57868 0
-2.17253 2.00558 0
-6.80599 5.0138 0
-2.65622 3.42206 0
-2.97507 2.84713 0
-3.73797 3.76087 0
-5.4766 5.84321 0
-7.11784 5.60854 0
-6.93435 5.38187 0
-6.58983 5.82145 0
-5.19406 4.99085 0
-6.1804 6.24662 0
-3.04541 3.71759 0
-4.00052 4.47555 0
-5.72144 7.31391 0
-4.51153 4.72732 0
-4.72156 5.38672 0
-1.73962 2.30206 0
-3.90446 5.12238 0
-5.78742 4.83932 0
-5.98061 4.77477 0
-2.23418 1.67151 0
-4.10488 3.47419 0
-6.63262 6.02122 0
-3.37642 2.65609 0
-4.1343 5.08249 0
-4.1307 3.91685 0
-5.12446 4.57585 0
-5.12783 4.1069 0
-3.98302 3.60837 0
-5.29415 7.24872 0
-6.28014 5.66709 0
-2.34384 2.48951 0
-2.17615 2.63546 0
-4.1576 5.70737 0
-4.99825 6.26242 0
-4.76225 6.55369 0
-3.66609 4.11453 0
-5.18942 6.31586 0
-3.35842 3.91991 0
-4.67259 5.80378 0
-5.77242 4.61514 0
-6.08328 6.65482 0
-4.87148 5.20056 0
-3.67849 4.86656 0
-2.75722 2.78406 0
-5.45099 5.62821 0
-2.43807 2.8795 0
-4.63723 4.27266 0
-3.0238 2.38853 0
-1.4628 1.76896 0
-1.98594 1.72015 0
-6.2027 4.78648 0
-6.23241 6.06755 0
-5.74106 5.21271 0
-5.10375 5.7741 0
-5.87493 6.91237 0
-3.20708 3.18798 0
-4.68953 3.7357 0
-2.95634 2.62955 0
-6.40476 7.02844 0
-5.07953 5.58403 0
-2.93986 3.08528 0
-6.86764 6.9868 0
-4.90043 4.0232 0
-0.685772 0.922404 0
-5.67629 6.89907 0
-4.88782 4.98905 8.78682
-4.97858 5.32423 7.87201
-1.27347 1.08568 24.9331
-3.1382 2.43259 18.0353
-4.02603 5.33826 9.88773
-5.7122 7.0268 2.63963
-3.0451 2.8506 17.3374
-4.7249 5.3916 8.27215
-4.4903 4.97617 9.66828
-7.05874 5.39424 3.25395
-5.41599 6.20576 5.03922
-5.73931 6.25997 4.2284
-3.35465 2.79222 16.798
-3.6666 3.64658 14.293
-5.40003 4.20122 9.3788
-4.53518 3.72103 12.2676
-4.27482 5.30011 9.43532
-3.5061 2.55468 16.9829
-3.79383 4.52584 12.1313
-7.42772 5.53249 2.16454
-4.44822 3.27502 13.4123
-3.8554 3.36603 14.4901
-4.68494 5.96126 7.13448
-2.90853 3.62458 15.9684
-6.3617 6.97795 1.34959
-3.87499 4.31745 12.4046
-6.56062 6.79901 1.30669
-2.46713 1.99661 20.413
-6.41871 5.35406 4.71488
-3.05724 3.26844 16.4139
-5.49604 7.33924 2.43286
-2.56779 2.95242 18.1439
-6.13222 6.16541 3.58761
-6.35913 5.73109 4.03308
-4.23699 5.02398 10.1096
-5.96394 6.90378 2.36317
-1.78409 1.35758 23.2524
-1.65623 2.21607 21.6832
-5.61787 4.56337 8.1331
-4.17909 4.73144 10.8623
-2.84042 2.43573 18.6681
-5.77001 6.84492 2.90612
-3.54607 2.9533 16.0409
-2.8918 3.88476 15.4456
-3.98774 4.05284 12.7307
-4.35463 3.1929 13.7897
-6.66617 6.32591 2.09609
-4.06012 3.67753 13.3814
-0.475624 0.637118 27.6101
-5.01177 6.00257 6.34382
-3.53035 4.67418 12.3786
-3.4858 3.17695 15.69
-3.85397 3.7006 13.7746
-3.47011 3.40915 15.225
-1.58932 1.77006 22.7849
-4.73214 3.79164 11.6929
-5.88136 5.59993 5.34093
-4.22579 3.94942 12.4416
-2.32585 1.83987 21.053
-5.96785 5.91238 4.48408
-5.55667 4.47281 8.45906
-7.39239 6.07885 1.06696
-5.9764 4.95104 6.53046
-4.53749 4.33732 10.939
-1.70716 1.61347 22.8681
-4.83788 6.53211 5.57994
-3.03004 2.35354 18.4373
-2.10015 2.67708 19.7396
-0.436392 0.45808 28.0789
-2.81505 3.77769 15.8404
-6.54729 7.41764 0.00663389
-5.01784 4.35251 9.87472
-6.84675 6.0374 2.3279
-6.95694 5.22456 3.83701
-5.75456 4.19121 8.63885
-2.23759 2.38673 20.068
-5.74587 5.17416 6.54637
-6.43324 4.69605 6.09692
-2.4576 2.85251 18.5951
-2.13247 2.80718 19.3908
-3.70351 4.02929 13.3918
-4.42947 4.92811 9.90212
-2.48625 3.22424 17.7352
-4.87691 6.09823 6.428
-6.15625 5.59397 4.76331
-3.23769 3.57181 15.3748
-4.90597 5.09768 8.51454
-6.49026 7.18244 0.634292
-6.34734 5.60695 4.32501
-6.5602 6.63347 1.66313
-3.10387 4.14235 14.4368
-0.491155 0.505097 27.8603
-2.16668 2.18556 20.6524
-3.91093 3.99394 13.0222
-6.96134 5.82655 2.53466
-5.64329 5.70968 5.61651
-4.35769 4.55476 10.8582
-3.25513 2.37536 17.907
-1.82078 1.70319 22.4313
-3.85674 3.10939 15.0384
-7.25845 5.77371 2.01001
-5.72611 5.83874 5.16144
-6.76454 5.61545 3.41072
-3.64685 4.68667 12.1016
-6.30556 5.28023 5.11647
-2.79753 2.88664 17.7917
-1.43915 1.06612 24.6193
-6.13533 5.22039 5.61059
-7.29926 6.60174 0.143932
-4.71771 5.6044 7.83057
-6.07401 4.48507 7.3216
-5.97863 6.19176 3.86088
-4.15027 5.44866 9.38377
-2.11313 1.98199 21.2046
-5.02075 5.86951 6.61029
-7.1483 5.23357 3.40668
-4.00819 5.04923 10.5468
-5.91564 4.44838 7.74056
-6.54952 5.59237 3.92209
-4.92796 6.6464 5.14102
-4.14197 5.03834 10.2829
-2.10946 2.15607 20.8387
-4.86966 5.69073 7.31879
-4.47833 3.90257 11.9998
-4.74294 5.4948 8.01176
-6.01179 7.55064 0.871108
-5.62706 6.1312 4.74604
-4.61824 4.61595 10.1671
-4.22697 5.55632 8.98783
-5.63697 6.60507 3.707
-6.26226 7.47645 0.49252
-3.40049 3.85161 14.4242
-6.22722 6.36201 2.96132
-4.13282 3.92273 12.6986
-6.05618 6.62347 2.76712
-4.76521 5.15647 8.69059
-2.43018 2.79366 18.7804
-1.47502 1.26955 24.1053
-4.61687 5.91936 7.37068
-6.17117 5.32586 5.30711
-4.34115 3.59771 12.9492
-7.18761 5.43515 2.8893
-6.52788 4.84336 5.57729
-5.79313 5.5929 5.5455
-4.29258 3.56252 13.1291
-4.6291 5.54806 8.14189
-7.00888 6.25205 1.51867
-4.70001 3.6505 12.0651
-5.84714 6.67925 3.09629
-5.37305 6.84567 3.75707
-4.00517 4.5018 11.729
-3.30481 4.0199 14.2683
-2.87443 3.13819 17.0863
-3.95916 3.7042 13.5409
-6.36353 6.20438 3.0071
-2.95169 2.77177 17.7074
-5.89127 7.59142 1.04238
-4.86838 4.22276 10.4744
-5.1992 5.09595 7.88846
-6.95138 5.41983 3.42956
-5.57523 5.88003 5.39682
-6.21149 5.91676 3.95139
-1.56302 1.46814 23.4898
-4.80628 3.9169 11.2647
-4.47936 4.67667 10.335
-5.37543 7.39471 2.57277
-6.4837 6.93447 1.18096
-2.57323 3.092 17.8324
-5.83062 4.39927 8.02861
-6.68424 7.02787 0.549633
-6.91478 5.1464 4.09543
-7.23721 6.51649 0.46031
-6.60301 7.00063 0.782613
-3.90867 4.63666 11.6466
-3.05996 2.98915 17.0079
-1.24583 1.54366 24.0088
-3.43636 3.11014 15.9397
-4.32479 5.09969 9.75845
-7.35648 6.36289 0.534048
-3.80958 4.23679 12.7183
-5.47906 4.70246 8.13251
-6.82786 5.73968 3.0079
-3.39553 4.15279 13.788
-5.6752 4.7012 7.71395
-5.39949 5.02951 7.60098
-5.52188 5.53834 6.24529
-6.26959 7.55528 0.307457
-5.79925 4.6622 7.53129
-0.606604 0.627307 27.3499
-3.2262 3.49097 15.5731
-3.44913 4.18629 13.6009
-5.4544 6.85303 3.56656
-4.4039 4.64755 10.5596
-3.45949 2.82106 16.5108
-6.08299 5.1109 5.95818
-2.2692 2.62833 19.4813
-3.68861 5.00059 11.3377
-7.80537 5.78596 0.809043
-5.09498 3.87716 10.73
-3.99022 5.17489 10.3155
-4.38418 4.2214 11.5173
-5.11346 6.69692 4.63409
-5.10248 5.98856 6.17908
-2.24584 2.19163 20.4694
-3.49749 4.01845 13.8576
-4.27835 3.47489 13.3479
-5.25363 6.69069 4.34644
-3.57126 4.41468 12.8481
-3.9579 3.153 14.7275
-7.53211 5.63928 1.71097
-1.95851 2.11907 21.2423
-7.1354 6.0125 1.76144
-5.40868 5.56348 6.43439
-2.66259 2.01768 19.9479
-6.21189 6.20948 3.32184
-2.98986 3.18246 16.7433
-0.697138 0.754907 26.8814
-3.03732 2.57271 17.951
-6.74369 6.77457 0.965982
-6.35383 6.12153 3.20587
-4.51976 5.83388 7.76285
-5.00543 6.35854 5.5929
-2.20299 2.51251 19.8722
-1.63775 1.5583 23.1356
-5.64457 5.53772 5.9831
-5.10615 4.14118 10.1389
-6.60916 5.84326 3.25517
-3.59667 4.30025 13.0393
-2.69281 2.30226 19.2718
-4.67918 5.35434 8.45037
-5.81999 7.39683 1.61341
-4.61035 4.48464 10.4661
-7.21635 6.0583 1.48919
-3.12596 2.85652 17.151
-3.66637 3.9249 13.6957
-5.915 6.38096 3.59119
-6.45016 4.82226 5.7895
-4.59986 5.31918 8.69625
-5.95354 6.42872 3.40586
-4.73324 3.54463 12.2211
-4.87713 6.0085 6.62025
-5.49516 7.42974 2.24038
-4.89966 3.61697 11.7083
-5.15807 4.32994 9.62199
-6.1974 7.42536 0.741553
-2.10433 2.3855 20.3569
-4.80072 3.63411 11.884
-5.2263 3.97874 10.2298
-6.03699 4.73282 6.86899
-6.0206 4.99393 6.3434
-7.09599 6.69922 0.371143
-4.7108 6.28773 6.37776
-4.96648 4.06726 10.5977
-6.78104 5.68741 3.22074
-4.55777 5.0337 9.39978
-4.68495 4.24033 10.8306
-3.85195 3.02558 15.2287
-5.93868 5.14755 6.18942
-6.32597 6.00804 3.50947
-4.07524 3.56096 13.5993
-1.6221 1.21996 23.8959
-5.20325 5.57664 6.84736
-7.89659 5.99659 0.160757
-5.37387 5.4271 6.80206
-5.36553 3.99626 9.89309
-2.22673 1.99637 20.9298
-7.00744 6.01309 2.035
-5.59433 6.46965 4.08944
-6.49317 6.05844 3.04211
-5.67456 7.61061 1.4666
-5.99727 7.11969 1.82789
-1.16327 1.39729 24.5005
-2.71314 2.76681 18.2304
-2.87233 2.49888 18.4639
-1.48523 1.73287 23.0883
-6.12775 6.65349 2.54893
-2.44351 2.46993 19.4471
-5.29471 4.6881 8.55929
-5.79752 7.20557 2.07245
-3.99976 4.62849 11.4686
-4.99395 4.72955 9.11622
-2.35069 2.36449 19.8729
-5.64461 5.30863 6.47504
-5.19232 7.146 3.50021
-5.33239 5.32176 7.11742
-5.46882 6.52131 4.24804
-3.12277 2.354 18.2372
-3.77827 4.16814 12.933
-6.64375 5.06911 4.84354
-5.03222 4.81422 8.85217
-7.03884 5.26489 3.5745
-6.53816 6.54228 1.9063
-2.3967 3.13068 18.1285
-4.22011 5.4801 9.16627
-6.12147 7.09014 1.6246
-4.15785 5.29097 9.70617
-1.02318 1.15067 25.3311
-3.03001 2.78495 17.5108
-3.97661 4.75219 11.2526
-7.19171 6.1982 1.24164
-4.40148 5.87607 7.92624
-3.44217 3.57424 14.9304
-6.6033 5.69766 3.58046
-6.7235 5.29941 4.17763
-4.84013 4.76977 9.36021
-5.57548 7.45407 2.01562
-1.14285 1.51739 24.2864
-2.07834 1.64913 21.9943
-4.95917 5.52357 7.48556
-6.88472 5.35263 3.71708
-5.08831 5.14492 8.02145
-5.09106 6.57178 4.95099
-2.72283 2.41988 18.9547
-3.81639 3.61956 14.0293
-6.98931 6.90569 0.156821
-4.19736 3.75697 12.916
-6.52457 5.00097 5.24588
-1.47854 1.61582 23.354
-4.79327 6.49438 5.75681
-6.69886 6.16386 2.37393
-7.90011 5.77762 0.62348
-6.51547 7.31066 0.304744
-5.68142 6.00548 4.89932
-3.14993 3.93522 14.7828
-5.82852 5.99095 4.61458
-3.6 2.64896 16.5787
-6.27233 4.7722 6.27896
-5.33489 5.98052 5.69719
-3.18736 4.17333 14.191
-3.60824 3.24449 15.2819
-5.89182 7.05857 2.18563
-5.68414 6.21913 4.4346
-6.04751 4.60371 7.12371
-4.52192 3.95819 11.7867
-3.58758 3.53586 14.7005
-5.50417 5.69031 5.9569
-4.78382 6.40984 5.95868
-6.46578 5.40862 4.4966
-2.21202 2.8054 19.2238
-4.2546 4.37074 11.4748
-4.39231 5.97884 7.72522
-4.54377 4.76407 10.009
-5.85788 5.87987 4.79009
-4.83423 4.36355 10.2453
-3.53566 4.52767 12.6819
-6.67429 5.55818 3.72755
-3.92426 4.48806 11.9323
-5.46995 6.28377 4.7558
-6.67464 4.92027 5.09689
-4.70371 6.40296 6.14549
-1.09166 1.36689 24.7196
-4.89508 6.56183 5.39327
-1.72001 1.25619 23.6078
-2.39793 2.20351 20.1172
-2.94014 3.01594 17.2078
-4.97645 4.30048 10.0753
-5.82822 4.7516 7.27706
-4.49204 4.50578 10.6748
-2.83946 3.31563 16.7803
-5.91311 6.16319 4.06298
-4.68425 4.49138 10.2929
-6.97546 6.12247 1.86874
-4.69959 5.77273 7.50794
-4.88067 3.76951 11.4215
-5.42821 4.541 8.5885
-4.82184 4.09675 10.845
-1.35056 1.7633 23.3122
-6.04309 7.67442 0.538048
-4.43987 3.71502 12.4852
-5.66025 4.19297 8.83762
-7.46175 6.36291 0.307926
-2.50786 2.18075 19.93
-4.15756 5.17212 9.96207
-5.21533 6.16375 5.56043
-5.35949 5.16492 7.39605
-5.15505 4.83948 8.53412
-3.34255 3.02046 16.3338
-4.7364 6.16837 6.57915
-5.56976 4.05946 9.31872
-4.60403 4.20999 11.0696
-5.67456 6.78596 3.23775
-6.07306 7.21064 1.46976
-5.15873 4.4617 9.3376
-6.51151 5.84681 3.45725
-6.11846 7.6992 0.322942
-6.65105 7.15838 0.340618
-5.67611 7.47721 1.74979
-3.9433 5.29844 10.1509
-1.38369 1.41753 23.9836
-5.44333 4.85423 7.8833
-5.22321 7.02735 3.68872
-5.919 6.85034 2.57449
-6.99697 5.71402 2.69983
-4.4874 5.71757 8.08214
-2.25183 2.89058 18.9553
-2.87446 2.72657 17.9703
-4.64317 4.88004 9.54642
-5.70604 5.41672 6.11094
-3.70114 3.26318 15.0423
-5.38755 6.05801 5.41764
-3.92704 4.93977 10.9562
-4.51325 3.43124 12.9371
-6.90906 6.54482 1.10427
-6.5833 5.22734 4.63355
-5.20732 4.97977 8.12055
-5.03547 6.19741 5.87444
-6.72775 6.03346 2.59194
-2.03501 2.52432 20.2076
-2.0329 1.8298 21.7038
-5.68782 7.68571 1.27683
-6.3222 6.87354 1.65867
-5.49935 5.8588 5.6054
-6.62111 6.82112 1.12928
-6.46839 5.5852 4.11175
-2.52138 2.26703 19.7156
-6.77065 6.56444 1.35939
-6.18474 5.74308 4.38187
-7.13624 5.83621 2.13826
-7.72323 6.06579 0.38444
-4.24802 4.82261 10.5184
-5.84816 5.43107 5.77489
-1.37835 1.20782 24.4455
-2.93682 2.58171 18.1475
-6.75566 5.11576 4.503
-2.85011 2.17733 19.2022
-7.06941 6.33997 1.19982
-7.48682 5.59203 1.90973
-4.74128 6.06024 6.80089
-7.13114 6.79517 0.0896037
-7.22076 5.57627 2.51501
-4.90781 5.24607 8.19186
-3.16056 3.06601 16.6268
-6.98484 5.61566 2.93713
-6.78016 6.43411 1.61888
-6.74005 6.8969 0.711063
-7.61163 5.73335 1.33814
-6.96762 6.65615 0.739373
-5.50601 5.35766 6.66743
-4.55069 5.89757 7.55963
-6.35461 7.08489 1.13513
-4.97062 4.64232 9.3537
-5.87808 7.68616 0.86723
-6.58441 6.06131 2.84
-5.99732 7.90571 0.139586
-3.45374 3.29077 15.5144
-3.3263 4.08797 14.0759
-3.00013 2.2957 18.6258
-2.59307 3.446 17.0295
-7.52222 6.03256 0.887541
-6.02785 5.39231 5.4722
-0.972451 0.820738 26.1487
-2.63779 2.13213 19.7553
-6.83727 7.02912 0.218271
-5.47609 7.11168 2.96445
-6.78251 6.33571 1.82517
-5.99486 5.27191 5.80167
-5.2427 5.31917 7.3156
-6.62812 4.83873 5.37194
-3.18032 3.37744 15.9155
-4.7828 4.56401 9.92528
-7.6848 5.7964 1.04558
-4.45285 3.55776 12.7951
-5.27904 6.2499 5.23858
-2.43283 2.62499 19.137
-1.3083 1.70793 23.5219
-4.22291 4.57917 11.0952
-1.88171 2.38375 20.8388
-4.29315 3.76687 12.689
-5.25298 4.84739 8.30681
-3.31504 3.16602 16.0802
-4.81685 5.60352 7.61953
-1.91866 2.51806 20.471
-3.96943 3.35122 14.277
-1.74044 1.93753 22.1006
-5.59629 7.17519 2.5699
-1.79254 1.81137 22.2596
-5.02903 5.54958 7.27964
-5.513 4.01685 9.53215
-5.01061 5.06585 8.35815
-2.53396 2.0709 20.1099
-3.72324 2.99664 15.5673
-6.03507 5.50361 5.21764
-5.81322 4.92791 6.9306
-3.19056 3.70316 15.1939
-4.66129 5.72488 7.69297
-5.73059 5.75577 5.33002
-6.17835 4.64326 6.75775
-5.07161 5.37803 7.55663
-4.51943 6.05571 7.28711
-1.75467 2.34786 21.1887
-4.65272 3.97875 11.4616
-5.47932 7.01309 3.16926
-5.49247 6.37301 4.51575
-5.18038 6.87178 4.11482
-2.71391 3.2331 17.2272
-1.98488 1.63483 22.2257
-4.40167 5.408 8.93115
-2.88306 3.35924 16.593
-3.31612 2.90377 16.6411
-5.35872 5.75344 6.13371
-6.50106 7.00991 0.981644
-7.35589 5.49798 2.39293
-7.16392 6.40739 0.852051
-6.05293 6.91142 2.15566
-3.27237 2.57299 17.4456
-6.29594 5.03785 5.65772
-1.90453 1.78014 22.0862
-5.83551 5.35705 5.96103
-4.18865 4.51625 11.3039
-3.20183 4.00416 14.5232
-3.80213 3.32941 14.6831
-4.1677 4.2039 12.0198
-5.33956 6.42833 4.72536
-4.21363 3.44449 13.5522
-7.33719 6.00158 1.35149
-1.28801 1.42726 24.1683
-1.40033 1.57566 23.6083
-5.85049 6.08303 4.36964
-4.16422 3.18622 14.213
-5.51776 4.36177 8.78112
-4.57612 4.83373 9.78987
-3.4487 4.65914 12.5863
-3.93309 3.84126 13.3025
-6.16794 4.9236 6.17799
-1.89273 1.51651 22.6778
-4.85439 4.65635 9.57318
-4.33676 5.82615 8.17249
-6.45327 5.18761 4.99815
-6.33555 4.85304 5.96955
-6.28714 6.39874 2.75373
-5.45363 5.81052 5.80727
-2.56878 2.62303 18.8492
-6.333 5.17487 5.28383
-7.49706 5.89976 1.22681
-6.35861 5.06631 5.46198
-3.99848 2.97279 15.0274
-3.75713 5.14319 10.8842
-1.58158 2.0104 22.2853
-3.2949 2.6453 17.2419
-0.989072 1.05703 25.6055
-4.59526 3.56416 12.4755
-6.06347 5.55939 5.03684
-3.61991 4.87703 11.7506
-2.88228 2.23664 19.0058
-1.7279 2.2681 21.4175
-3.77873 4.78353 11.6103
-6.20087 5.82497 4.17134
-4.46957 5.56083 8.45708
-3.0708 3.68021 15.5004
-2.38802 1.94562 20.6924
-5.4657 4.61117 8.35727
-6.1573 7.75228 0.125524
-4.94193 5.45598 7.66776
-2.50338 3.34424 17.4407
-4.99562 3.73448 11.2498
-5.39704 6.72773 3.95887
-2.58112 3.36987 17.2187
-4.71976 4.05995 11.1433
-2.50148 2.9036 18.3912
-5.21137 5.78644 6.37932
-1.9074 1.99289 21.6231
-5.94541 4.87852 6.75276
-2.68976 2.18179 19.5371
-6.27722 5.4425 4.82883
-5.2764 4.18515 9.67884
-5.79118 6.35442 3.91413
-5.80602 7.3064 1.83762
-2.77613 3.71895 16.0501
-2.7013 3.16021 17.4109
-6.82902 5.47131 3.58181
-4.39718 4.12264 11.7014
-5.90118 6.56438 3.22693
-6.00772 5.76437 4.71633
-4.95818 3.95545 10.8556
-6.33137 6.73854 1.92893
-4.39874 5.31011 9.1477
-5.21469 4.11691 9.95794
-5.26784 6.59849 4.51392
-3.9509 2.8873 15.3132
-1.86676 1.46088 22.853
-0.154653 0.149445 29.3469
-6.40791 6.59441 2.07409
-5.71337 4.36804 8.34752
-3.98398 4.15436 12.5208
-4.19376 4.05238 12.2892
-5.72938 7.136 2.36822
-6.54912 6.28081 2.44436
-3.9335 4.36078 12.1858
-5.62048 4.8264 7.56257
-6.93438 5.58494 3.11148
-0.997407 1.29527 25.0759
-1.26197 1.63225 23.7839
-7.55866 6.08138 0.704418
-4.65369 3.41381 12.6729
-1.96801 1.57157 22.3978
-7.29692 5.91693 1.61979
-3.69076 4.52183 12.3613
-5.69762 6.68369 3.40789
-4.15668 3.69533 13.1357
-2.06912 1.90988 21.4541
-2.07116 2.78115 19.5784
-3.60569 3.14099 15.5097
-2.74258 3.29253 17.038
-6.48934 6.21605 2.71183
-5.22968 3.80295 10.6
-4.08564 4.88897 10.7246
-5.25071 6.8891 3.92655
-5.10735 6.38401 5.31927
-4.54666 4.13996 11.3432
-3.1261 2.63897 17.618
-3.12821 3.27953 16.2377
-1.63605 2.15575 21.8561
-0.659357 0.698089 27.0845
-2.16344 1.75566 21.5827
-3.60713 4.8018 11.9396
-6.43909 7.45076 0.167897
-2.31656 2.94703 18.695
-7.39743 5.73606 1.79237
-3.20537 4.24315 14.0023
-1.6456 1.88372 22.4199
-3.33377 2.70639 17.0272
-5.32924 7.07837 3.35138
-3.31936 3.34277 15.6913
-3.67258 4.91846 11.5485
-3.73268 4.13174 13.1091
-3.76979 3.27761 14.8638
-7.22379 5.67682 2.29255
-4.09517 3.44858 13.7978
-3.69929 4.37479 12.6588
-4.92441 5.83867 6.88345
-0.9221 0.956328 25.9656
-4.69453 4.94319 9.30046
-0.776123 0.852591 26.5019
-3.18195 4.34963 13.824
-6.87002 6.82073 0.595521
-5.5611 6.57139 3.9423
-6.09094 6.9731 1.94154
-3.04192 3.48519 15.9813
-3.6326 4.15529 13.2735
-2.99211 3.41623 16.2364
-5.65891 4.91183 7.29656
-3.58857 3.41003 14.9687
-5.77873 6.45529 3.72424
-5.35359 4.53472 8.76226
-7.73777 6.14808 0.176477
-6.39078 6.42826 2.46775
-4.15043 3.10952 14.4073
-5.925 7.85045 0.413583
-2.79707 3.61847 16.2209
-4.88375 6.25106 6.08507
-4.5256 5.14196 9.23637
-6.31461 6.57279 2.32093
-4.42672 3.38441 13.2235
-6.22663 7.10663 1.36331
-5.68566 7.25437 2.20787
-4.09336 3.06416 14.6273
-7.8207 5.91259 0.504149
-4.3174 5.71577 8.45113
-3.81214 4.63748 11.8522
-5.85059 7.52758 1.26687
-4.53976 5.28718 8.89407
-4.71242 4.73697 9.70495
-6.98673 5.90108 2.32005
-6.19324 5.65981 4.54246
-5.28849 5.91892 5.92914
-3.72269 3.08906 15.37
-5.57516 7.10509 2.76582
-2.66178 2.66136 18.5672
-7.56824 6.18511 0.461076
-1.1785 1.04938 25.215
-2.33158 1.75793 21.2167
-3.70635 2.90966 15.7904
-2.809 2.96566 17.5974
-7.32968 6.25591 0.821368
-6.42706 5.77592 3.7909
-4.35996 4.342 11.3102
-6.23329 6.01079 3.70263
-6.77561 7.17308 0.0415337
-4.05263 3.88836 12.9446
-5.87234 5.69141 5.16379
-6.73389 5.88752 2.89219
-3.8723 5.10241 10.7245
-6.76326 6.65455 1.18172
-5.21114 5.2685 7.49222
-7.13849 5.56774 2.71003
-5.31955 4.46829 8.97803
-3.83273 4.86541 11.3185
-6.39607 7.35921 0.456925
-3.0401 3.5766 15.7889
-6.08532 6.51857 2.92984
-4.36276 3.92813 12.1931
-6.32283 4.63965 6.45519
-4.03387 5.42665 9.68104
-5.05382 4.09341 10.3539
-6.92504 6.43808 1.29917
-2.74851 3.454 16.6785
-3.4297 3.73086 14.6208
-1.5838 1.33396 23.7333
-1.7555 1.67298 22.6364
-6.19159 6.81798 2.05854
-3.53818 2.85774 16.2631
-5.98058 7.44708 1.16056
-3.51213 3.80586 14.2827
-3.23535 3.78361 14.925
-7.35861 5.39491 2.60848
-6.11576 4.84029 6.46899
-1.22245 1.20638 24.7835
-4.81983 4.87558 9.17655
-1.12137 1.23819 24.9322
-3.483 4.306 13.2711
-6.4096 7.16202 0.851385
-4.17046 4.34424 11.7125
-3.75419 3.51571 14.386
-4.6673 5.08447 9.05552
-4.1468 3.31929 13.9646
-4.35424 5.60747 8.6046
-5.93579 4.51163 7.56142
-6.86281 6.11598 2.12463
-6.06649 5.95732 4.17572
-7.45841 5.82939 1.46095
-5.40617 4.31241 9.1268
-3.04105 3.83456 15.2328
-4.30547 4.89655 10.2363
-4.4342 4.37039 11.0898
-5.26147 6.41141 4.92943
-0.850211 0.879827 26.2843
-7.20951 5.26665 3.20415
-5.47454 5.29451 6.87064
-6.12725 6.38923 3.11757
-3.49801 3.92265 14.0622
-4.05876 4.75523 11.0696
-5.08026 5.7241 6.79478
-5.92226 4.74425 7.09085
-2.67712 3.66036 16.3886
-3.40604 4.48729 13.047
-4.20915 5.67558 8.76994
-5.13285 3.74894 10.924
-4.02903 4.22342 12.2757
-5.65626 5.14153 6.8089
-4.80116 4.47135 10.0848
-7.22187 6.44407 0.648792
-3.81497 3.81864 13.6048
-4.44288 4.79053 10.1688
-5.87052 7.78372 0.673914
-4.98966 6.84449 4.58305
-7.69941 5.96386 0.654548
-5.48275 5.1966 7.06327
-4.62133 6.10392 6.96472
-5.59363 5.0393 7.16298
-5.81681 5.20618 6.32523
-5.00299 4.4648 9.66544
-6.15176 7.34843 1.00481
-5.16503 4.60962 9.00639
-5.7712 4.8724 7.14006
-5.07013 5.6538 6.96753
-5.25541 5.60965 6.66443
-6.90125 3.91012 0
-7.94176 5.53929 0
-6.23039 4.42939 0
-4.05407 2.1436 0
-3.30993 1.47191 0
-5.35581 3.26772 0
-2.22701 1.161 0
-5.5023 2.02373 0
-4.02934 2.5453 0
-7.68545 4.09562 0
-3.76973 1.7241 0
-8.54129 4.13441 0
-5.99483 3.8889 0
-4.291 2.75456 0
-8.31174 4.5704 0
-6.55291 4.35018 0
-4.15156 2.347 0
-1.6323 0.597656 0
-7.12521 3.40225 0
-0.761023 0.475255 0
-6.61226 3.07596 0
-7.96585 3.33748 0
-6.96183 3.01063 0
-5.02144 3.48007 0
-4.69677 3.06885 0
-3.01122 1.29984 0
-4.32939 1.47669 0
-8.65927 3.15043 0
-3.29068 2.29279 0
-6.1661 2.38304 0
-6.78558 4.79832 0
-8.48786 3.25082 0
-4.00177 2.8868 0
-6.15631 3.67427 0
-7.77294 2.90092 0
-8.4295 5.16858 0
-6.10584 4.12844 0
-8.3211 2.84565 0
-4.35274 1.853 0
-6.91261 4.55531 0
-4.36902 2.1074 0
-6.42692 3.16407 0
-4.34595 2.53466 0
-8.26097 4.9249 0
-5.63689 3.44299 0
-9.01612 3.18379 0
-2.5734 0.980972 0
-7.95042 4.49543 0
-8.42459 4.33099 0
-5.42499 3.08079 0
-8.72776 3.94891 0
-5.21954 3.42866 0
-5.54333 2.43668 0
-3.99099 1.4375 0
-8.72482 3.62414 0
-5.377 3.6274 0
-7.35254 4.97894 0
-7.15806 4.93424 0
-6.28664 4.06194 0
-6.35636 3.88499 0
-7.5865 3.73844 0
-8.17194 3.42678 0
-5.42034 2.75739 0
-6.8833 3.32241 0
-4.14269 1.56591 0
-6.53604 2.75205 0
-5.5583 3.908 0
-7.84187 4.2118 0
-7.02019 4.80729 0
-6.91469 2.77073 0
-8.18384 3.72063 0
-7.26564 2.468 0
-5.84461 3.48728 0
-7.18515 4.65059 0
-8.17712 5.37468 0
-2.76176 1.05642 0
-6.78321 2.36822 0
-7.33798 4.17659 0
-8.61801 4.43006 0
-7.73026 2.52786 0
-6.51899 4.03838 0
-3.3939 1.12185 0
-5.76869 2.31056 0
-8.13771 5.7796 0
-1.07738 0.581069 0
-7.15625 2.95891 0
-6.52379 3.62815 0
-0.212841 0.14579 0
-4.93784 2.16462 0
-1.95702 0.741719 0
-4.55151 2.85054 0
-7.52048 3.99599 0
-5.06341 1.74786 0
-8.07391 4.75425 0
-7.39431 3.44798 0
-6.33247 2.09023 0
-4.55607 3.22288 0
-5.15035 3.07417 0
-3.79291 2.0934 0
-7.61361 4.43284 0
-1.19132 0.791983 0
-5.91491 2.44816 0
-3.7196 1.50644 0
-6.13094 1.99942 0
-5.04304 2.53638 0
-5.88958 2.63932 0
-7.78387 4.57599 0
-7.99498 5.17194 0
-2.08061 1.37706 0
-3.58751 1.32126 0
-7.31824 3.88815 0
-4.8843 3.16694 0
-3.48994 2.25615 0
-6.56044 2.20617 0
-7.41361 2.65545 0
-4.54642 2.53004 0
-7.39503 2.90796 0
-2.74631 1.53931 0
-2.81415 1.84828 0
-4.80374 2.2898 0
-5.32768 2.47992 0
-3.18558 2.05875 0
-7.00912 4.35114 0
-6.93094 4.11343 0
-8.26767 4.04914 0
-7.05406 2.43565 0
-4.65398 1.97825 0
-8.73422 3.41415 0
-2.99203 1.99841 0
-5.78803 2.98443 0
-9.42362 3.16716 0
-3.36919 1.70076 0
-5.77203 3.95411 0
-5.42144 2.24289 0
-7.53251 4.81772 0
-7.17372 4.01347 0
-7.88581 3.71992 0
-5.95047 2.11975 0
-2.79856 1.23796 0
-6.5705 3.86028 0
-6.26464 3.25801 0
-7.95975 3.08578 0
-3.0119 1.03999 0
-7.94067 4.97241 0
-8.39903 3.02305 0
-3.11748 1.49996 0
-8.58997 2.96179 0
-8.11643 2.92697 0
-7.62155 2.76282 0
-4.50893 1.6654 0
-6.16147 3.46033 0
-2.53925 1.25545 0
-5.65819 1.85184 0
-1.58282 0.957191 0
-5.2705 2.04996 0
-2.36994 1.0472 0
-7.97919 2.64997 0
-7.72033 4.87135 0
-2.40847 1.4481 0
-4.7563 2.68143 0
-7.016 3.19429 0
-5.58687 2.85649 0
-5.6356 3.21786 0
-6.40277 2.32034 0
-2.22795 0.774091 0
-7.2143 2.78033 0
-4.86112 1.94321 0
-7.01867 3.72062 0
-8.41585 4.78498 0
-5.67885 2.68698 0
-7.3892 4.56788 0
-8.07528 4.0528 0
-1.29632 0.49971 0
-5.06011 3.67254 0
-2.49841 1.64582 0
-4.56732 2.31914 0
-8.99202 3.66663 0
-6.41671 4.20551 0
-4.15708 1.80063 0
-3.70238 2.60488 0
-1.88772 1.0399 0
-7.57002 2.95893 0
-6.0077 3.32074 0
-1.39747 0.833159 0
-3.59608 2.02224 0
-8.06232 4.3378 0
-8.22258 3.08597 0
-6.67814 3.43769 0
-8.92359 3.85361 0
-9.24513 3.23442 0
-5.75109 3.7715 0
-7.64908 3.52929 0
-3.76046 2.2847 0
-6.35812 3.5403 0
-7.24928 3.13482 0
-6.73273 4.36378 0
-7.53197 4.22618 0
-5.21327 2.71012 0
-7.42909 5.21389 0
-8.98086 3.4295 0
-4.82677 1.7315 0
-6.82067 3.73734 0
-9.17683 3.68939 0
-6.82594 2.59746 0
-4.93217 2.89476 0
-7.74025 5.07218 0
-2.9602 1.6386 0
-3.61066 1.82236 0
-3.2363 1.2808 0
-7.46844 3.16043 0
-6.6614 2.88949 0
-5.86493 3.17683 0
-7.73433 3.35455 0
-3.55605 1.62089 0
-6.6118 4.61796 0
-8.49425 3.78516 0
-6.5519 2.48247 0
-4.6821 1.55843 0
-5.22871 2.30725 0
-0.440312 0.215089 0
-6.12889 2.99311 0
-6.33926 2.50635 0
-8.53177 3.55929 0
-5.56335 3.68312 0
-3.52854 2.5061 0
-6.08456 2.78177 0
-6.40797 2.96954 0
-6.00929 4.32006 0
-7.71516 5.35088 0
-3.94432 1.8491 0
-1.1145 0.36348 0
-5.86796 4.11921 0
-7.38558 4.387 0
-8.49269 4.58381 0
-3.42677 1.87686 0
-7.17638 5.20038 0
-8.36456 3.40181 0
-8.75698 3.88733 0.940207
-4.54094 1.65632 15.4267
-1.73121 1.09289 23.8077
-7.32029 3.15526 5.83787
-3.57255 2.15984 17.3531
-6.17573 3.34225 8.67759
-8.87885 3.53812 1.09192
-8.5887 3.64195 1.73401
-9.12313 3.10857 1.02317
-3.15004 1.66087 19.1847
-8.11083 3.37577 3.39433
-7.6716 2.76449 5.42596
-6.88682 2.94484 7.30116
-1.48237 0.884304 24.7688
-1.2108 0.613103 25.8777
-9.08689 3.50106 0.580013
-7.3904 4.19987 4.20767
-4.11377 2.10242 15.9676
-8.83958 4.09084 0.436042
-7.50526 5.33726 2.32841
-6.55478 2.78093 8.42577
-7.68431 2.88913 5.21968
-5.51472 3.70405 9.96759
-4.77197 3.32877 12.4952
-8.22553 3.18211 3.35097
-7.0519 3.84644 5.61112
-6.11923 4.29581 7.51559
-7.89178 4.58574 2.31866
-3.92698 2.05475 16.5389
-7.34865 4.97356 3.25377
-4.17056 2.15089 15.7471
-7.22644 2.82297 6.55008
-7.50365 3.84306 4.39321
-6.88788 4.37697 5.32345
-8.21221 4.4884 1.58571
-5.20478 2.72069 12.1624
-5.05986 2.92875 12.2677
-1.81946 1.23277 23.376
-6.07283 2.99434 9.43582
-4.74652 3.18698 12.7596
-3.28632 1.68509 18.7824
-6.32546 3.89513 7.50997
-7.95822 5.61206 0.7236
-4.73204 2.00212 14.4327
-5.31327 3.37828 10.962
-8.00026 4.95428 1.51687
-4.94333 2.82001 12.733
-2.69811 1.32371 20.8727
-8.25007 5.55841 0.00775284
-3.15875 1.21062 19.782
-5.50658 3.90084 9.71826
-8.11037 4.56483 1.75593
-8.32634 3.52135 2.61035
-7.13395 5.08084 3.68689
-2.07193 1.35204 22.5283
-3.87535 1.44087 17.5251
-6.54876 3.48613 7.46964
-5.45248 3.33236 10.6486
-0.798648 0.29707 27.4289
-6.08223 2.29296 10.3775
-6.21752 3.1219 8.86833
-6.6601 2.73861 8.19911
-6.93509 4.17449 5.47488
-9.06479 3.86914 0.132248
-1.22138 0.48179 26.0302
-5.6987 2.37041 11.3087
-6.47871 2.48845 9.03496
-8.95262 3.88998 0.407101
-7.86069 3.14689 4.3869
-3.70838 1.75353 17.5458
-8.24453 2.84421 3.7655
-8.43867 3.17867 2.77888
-3.38693 1.61534 18.6064
-2.16422 1.4717 22.1135
-5.32102 2.08192 12.7286
-9.01733 3.15307 1.24813
-4.66843 2.50692 13.9087
-6.72908 3.84305 6.48947
-7.18362 4.76302 3.99073
-7.7298 5.31044 1.7577
-3.82307 2.51448 16.1861
-6.72281 2.24791 8.70604
-9.18578 3.44596 0.388356
-6.89063 3.203 6.93485
-5.60446 2.13407 11.8897
-4.83271 2.24392 13.8268
-8.16356 4.93231 1.10523
-5.13014 3.04552 11.9165
-7.77177 3.14854 4.62528
-7.07686 4.65313 4.43118
-7.54188 3.13722 5.26306
-6.43194 3.20706 8.17062
-5.92864 3.2184 9.51708
-8.81275 4.01441 0.614054
-5.48922 2.44347 11.7749
-2.97244 1.94654 19.2714
-4.40619 2.57359 14.5265
-6.10622 3.34585 8.86076
-9.0953 3.64627 0.357019
-5.48973 3.48349 10.3394
-6.25002 4.06001 7.48679
-6.04439 2.84132 9.7238
-7.43793 2.82068 5.98087
-2.77596 1.37447 20.592
-7.61577 2.63821 5.75118
-4.30978 1.45062 16.3359
-6.30276 4.27246 7.05109
-3.385 1.83069 18.3146
-6.28739 3.3112 8.41821
-1.78915 0.821911 24.0246
-2.14759 1.35516 22.3192
-5.8262 2.99709 10.0995
-7.85106 5.55973 1.08579
-4.8299 2.68974 13.2196
-3.94266 1.8192 16.8212
-5.46259 2.35687 11.9664
-7.91442 5.26719 1.3177
-7.26709 2.87477 6.36863
-0.447274 0.280299 28.403
-0.248657 0.177692 29.082
-2.50917 1.18585 21.5741
-4.32722 2.5955 14.71
-3.56814 1.77405 17.8971
-4.25386 2.15889 15.5106
-5.0214 1.66362 14.1163
-6.09683 3.85168 8.18865
-1.89507 0.748354 23.8394
-7.47726 2.59169 6.1902
-7.80784 4.30779 2.92913
-6.88018 2.48615 7.95162
-5.05401 2.60158 12.7347
-1.37475 0.757394 25.2351
-3.94562 1.56123 17.1689
-2.35264 1.02554 22.2188
-3.49419 1.64594 18.2739
-7.69479 4.27378 3.28195
-6.36428 3.72279 7.64256
-2.39653 1.49082 21.4584
-2.49518 1.79799 20.7679
-4.03173 1.60006 16.8824
-0.88982 0.4514 26.9694
-8.81394 4.28544 0.237094
-6.63598 3.92924 6.62258
-5.23853 2.80568 11.9539
-3.86051 1.34166 17.7021
-7.87516 2.69248 4.97434
-4.95555 3.22757 12.138
-3.76082 2.69933 16.0997
-6.45433 3.70568 7.42246
-7.78211 2.76269 5.12937
-8.5448 3.19508 2.46903
-3.46367 2.00176 17.8658
-8.98548 3.31452 1.1117
-6.59263 3.55539 7.25542
-5.05313 1.96448 13.6156
-8.01364 2.83234 4.40671
-6.48546 4.32321 6.48665
-6.64554 4.25002 6.15437
-8.76681 3.08086 2.02568
-3.69891 1.99794 17.2344
-4.6173 3.17852 13.121
-4.70412 2.15391 14.2989
-5.87699 2.46798 10.6916
-4.43447 2.85527 14.0615
-8.09333 3.21788 3.65941
-3.72536 1.41867 17.9616
-3.12578 1.80749 19.0481
-7.32722 2.50083 6.72154
-8.67415 4.72066 0.0152749
-8.15772 3.89608 2.54995
-5.18853 2.62136 12.3433
-8.90686 3.61504 0.910071
-7.98648 3.99247 2.88046
-3.60869 1.5576 18.0858
-3.64132 1.98339 17.4104
-5.73577 2.55872 10.9487
-7.20178 2.65288 6.85136
-5.87735 2.79233 10.2434
-7.06924 2.8042 7.00139
-9.00946 4.04651 0.0374123
-3.21517 1.30289 19.502
-3.18007 1.83632 18.8615
-8.57452 2.84124 2.87652
-3.46814 1.80796 18.1209
-8.19317 4.69743 1.349
-4.94633 3.47432 11.8227
-6.69706 3.00533 7.7313
-6.82733 4.68503 5.06252
-5.22344 2.0292 13.0654
-8.53127 3.62025 1.91937
-7.05272 5.03905 3.96434
-4.82938 1.64977 14.6551
-2.70391 0.887971 21.4578
-7.99288 5.7533 0.435062
-3.8533 2.67259 15.8863
-7.95475 3.28187 3.94623
-4.24984 1.84402 15.9557
-5.31442 2.55669 12.0918
-5.52108 1.95857 12.3573
-7.46669 4.53046 3.54534
-4.87608 3.12196 12.4986
-7.3349 3.47254 5.36082
-7.54483 3.49365 4.76355
-5.16288 3.1376 11.7009
-7.98686 4.11287 2.7134
-7.50748 4.77229 3.10149
-8.19567 5.47254 0.273383
-8.11817 4.32525 2.06518
-2.22281 1.55 21.8469
-0.695175 0.404169 27.5613
-4.53964 2.64517 14.0666
-2.30593 1.66037 21.4698
-7.61988 3.90375 3.99494
-7.16221 2.4685 7.21271
-6.76392 4.52382 5.45642
-6.51846 2.96735 8.267
-7.59745 5.43779 1.9403
-5.65643 3.28297 10.1647
-5.29603 3.81171 10.411
-3.76827 1.57494 17.63
-7.58623 2.97404 5.36803
-5.38845 2.73176 11.6501
-7.12 2.91273 6.71436
-2.93944 1.41047 20.0999
-7.98952 5.09008 1.3587
-2.41574 1.35613 21.5922
-6.99643 4.67819 4.61432
-7.04478 4.9213 4.14821
-3.61335 2.41854 16.886
-4.94111 1.86537 14.0554
-8.3344 3.26701 2.93926
-6.17835 2.83232 9.37366
-6.97535 2.58926 7.55189
-6.80507 3.65645 6.54113
-2.51112 0.865785 22.0102
-7.18454 4.03465 4.99262
-4.4555 2.63309 14.311
-6.57615 3.33475 7.60427
-7.31532 3.87279 4.86189
-5.75103 2.97309 10.336
-0.833057 0.427897 27.1554
-5.80903 2.7819 10.4427
-2.55701 0.911661 21.8227
-7.61813 5.09155 2.36178
-3.4262 2.46013 17.3351
-4.63594 2.94302 13.3953
-6.51388 3.87894 7.02237
-6.47101 2.29069 9.32849
-8.03538 3.55115 3.35668
-7.88399 4.85441 1.96927
-4.94123 2.96103 12.5443
-5.20416 2.36595 12.6533
-2.74356 1.52761 20.4685
-6.24117 2.6693 9.42846
-7.53001 4.29059 3.70474
-7.81891 5.10259 1.80316
-1.00641 0.496591 26.5916
-7.87499 3.67085 3.62571
-3.38786 1.37984 18.9286
-7.06358 3.36324 6.24583
-3.95624 2.76737 15.477
-3.02784 1.76229 19.3755
-2.91463 1.21766 20.4329
-3.37318 2.32974 17.6584
-5.11966 2.21038 13.0965
-5.82673 3.84573 8.92784
-5.47131 3.17642 10.8127
-7.31876 2.63182 6.56381
-6.62591 2.34522 8.83412
-6.76365 4.63724 5.30076
-6.17468 2.24488 10.1937
-5.78343 3.4237 9.62696
-7.08503 3.68425 5.74513
-8.72483 4.47452 0.217523
-4.2729 2.50754 14.9783
-6.42806 4.12497 6.91536
-4.06966 2.62008 15.3732
-6.75671 3.58058 6.77662
-5.66415 2.95928 10.5902
-4.19017 2.90204 14.6582
-5.89756 3.66654 8.98323
-5.96644 3.05287 9.64304
-5.58027 2.48973 11.4647
-2.01932 1.26962 22.7843
-2.32608 1.34793 21.8461
-5.64443 2.7337 10.9546
-5.99999 2.577 10.2085
-6.81595 4.23157 5.71863
-8.72523 4.04934 0.802747
-4.06631 2.50377 15.5426
-7.22022 4.88934 3.71749
-1.55385 0.883891 24.5759
-7.07522 4.12029 5.17039
-2.90286 1.91013 19.5099
-6.41944 2.22602 9.55724
-3.03252 2.07429 18.9326
-8.55332 3.85107 1.54139
-5.42178 2.044 12.5082
-6.0892 4.00406 7.99916
-4.10168 2.71031 15.1621
-6.54994 4.4609 6.12228
-7.36184 4.35202 4.07516
-2.14124 1.16798 22.5945
-7.64122 3.08474 5.06657
-5.92902 2.95929 9.87336
-7.74808 3.84927 3.72313
-2.5536 1.29708 21.3005
-8.54323 4.31938 0.922904
-6.26507 2.47134 9.63675
-7.15221 3.88831 5.28193
-6.55449 3.10399 7.98109
-7.8645 5.23968 1.49075
-1.88658 0.975603 23.549
-7.74485 5.43189 1.54951
-7.80344 3.87768 3.53413
-6.9263 4.88931 4.51297
-8.26211 4.26401 1.76009
-3.35834 2.00145 18.1513
-6.93523 3.74852 6.0619
-7.90211 2.78337 4.77609
-5.02914 3.50824 11.5518
-7.20661 3.5282 5.63128
-9.35616 3.18545 0.286494
-5.35149 3.52404 10.6576
-8.24489 4.7509 1.13527
-6.52941 4.37626 6.29456
-3.67536 2.44868 16.6766
-6.56134 3.23851 7.77706
-4.78183 2.54521 13.549
-6.29237 4.16034 7.23382
-8.00128 4.20622 2.54567
-2.97414 1.55754 19.8032
-6.87317 2.72807 7.63702
-6.99717 4.29794 5.13666
-7.95409 3.12849 4.1595
-5.02985 2.41086 13.0631
-6.176 2.09056 10.4029
-2.07964 1.055 22.917
-2.44518 1.0908 21.8784
-3.02952 1.203 20.1422
-5.67623 1.95511 11.9422
-7.70106 5.18758 2.00491
-3.63407 2.20785 17.1205
-4.63636 3.29789 12.9048
-3.73988 2.48462 16.4525
-6.13423 4.04566 7.81994
-7.68762 4.57604 2.88458
-7.09401 2.46517 7.40185
-7.38343 3.63875 5.00029
-7.45109 3.29244 5.29471
-5.5911 2.34301 11.6377
-5.31069 2.42521 12.2832
-8.33634 2.81756 3.55376
-6.3548 2.44778 9.42641
-0.541025 0.287967 28.1387
-7.84747 3.27882 4.24076
-8.14696 3.53235 3.08063
-4.75926 2.93912 13.0669
-3.24187 1.63818 18.9674
-3.14403 1.0787 20.0037
-2.29261 0.788658 22.7079
-8.33631 4.35727 1.43067
-1.67934 0.775453 24.3858
-3.76408 1.22408 18.1252
-8.9032 3.75393 0.728459
-2.15537 0.823915 23.0307
-3.55596 1.45748 18.3666
-2.92692 1.71112 19.7192
-7.50897 5.20973 2.49425
-1.65662 1.08459 24.021
-7.61574 4.88878 2.64786
-8.37188 4.11382 1.67011
-3.53297 2.09742 17.5464
-6.78179 2.59174 8.07231
-8.32639 3.09738 3.19482
-1.50313 0.643242 25.045
-8.2052 5.17658 0.655718
-7.72315 3.44264 4.35131
-4.01134 1.83682 16.6111
-7.71926 4.99623 2.21952
-3.39917 1.24407 19.0852
-6.9159 4.05206 5.69565
-4.863 3.40869 12.1387
-4.4342 1.57594 15.8264
-7.87356 3.55239 3.79292
-6.91254 3.43865 6.55061
-8.84413 3.08348 1.81282
-1.97764 1.17086 23.0333
-1.11689 0.521032 26.2588
-7.08198 3.05954 6.61481
-7.33405 2.89174 6.16403
-6.77996 3.36363 7.01285
-5.15137 3.43055 11.3281
-2.16903 1.0113 22.7353
-1.41484 0.819145 25.0414
-7.23886 4.98204 3.5392
-8.65141 3.0899 2.32553
-7.15762 3.47057 5.84331
-5.51951 3.32827 10.4728
-8.45943 3.92125 1.6987
-2.81926 1.72876 19.9863
-5.91109 2.19828 10.9713
-4.88236 3.23947 12.3196
-6.97521 3.86798 5.78896
-4.1563 1.5167 16.6602
-7.74281 4.85162 2.3552
-1.16455 0.793837 25.7537
-4.7447 2.30295 13.9836
-8.42128 4.5612 0.919497
-6.04555 2.62579 10.0179
-8.78661 2.92617 2.18541
-7.42258 4.73693 3.38001
-5.17918 1.84037 13.4456
-2.24259 1.14027 22.3584
-4.30502 2.95103 14.2798
-8.05572 4.77255 1.61738
-8.03656 4.29287 2.33069
-7.23875 3.11917 6.10832
-1.78971 0.615366 24.3079
-2.62639 1.59185 20.697
-7.51357 5.07168 2.67214
-1.69961 0.556308 24.6332
-5.97619 2.37642 10.5494
-2.97505 1.03628 20.5195
-7.87899 4.30822 2.73598
-4.35052 1.57571 16.0532
-5.20936 3.44919 11.1455
-5.85055 3.57837 9.23204
-7.5678 3.63139 4.51147
-7.3464 5.13133 3.04232
-5.25651 3.20982 11.3479
-7.23308 4.13598 4.72153
-7.73815 4.10146 3.40225
-8.48539 4.57517 0.726721
-6.42034 2.76004 8.81842
-8.98692 3.73291 0.530861
-8.76368 3.68591 1.19984
-9.26361 3.06082 0.708824
-5.9929 3.48195 8.97976
-8.36976 4.43958 1.22664
-5.90096 2.58521 10.4651
-6.61789 4.66482 5.65719
-4.12972 1.69113 16.4916
-6.85688 3.10933 7.15536
-4.99941 2.33801 13.2459
-8.66192 2.82892 2.65696
-5.76693 3.7878 9.16955
-4.48656 2.24935 14.7561
-7.142 4.38703 4.62182
-8.55941 3.0435 2.6385
-0.96269 0.686765 26.4476
-6.93523 4.47513 5.05993
-8.75637 2.85213 2.36935
-3.5456 1.35078 18.5417
-8.40333 4.74993 0.707835
-8.48048 3.4737 2.25889
-8.02472 2.69288 4.56904
-4.19031 2.54158 15.1549
-2.76684 0.910552 21.2564
-3.23638 1.38348 19.3335
-8.6655 3.61629 1.56153
-3.89835 1.77707 16.9992
-4.4528 1.83378 15.4205
-4.53219 1.79254 15.2625
-5.62314 3.57301 9.85488
-7.35328 4.70363 3.61346
-2.84539 1.89467 19.6868
-6.90068 3.63004 6.31879
-7.54729 3.34244 4.96543
-6.73559 2.37001 8.5031
-4.34033 1.98908 15.5107
-5.12332 3.61476 11.15
-0.358095 0.257158 28.6763
-5.45209 3.07181 11.0089
-5.7838 2.08158 11.4767
-5.88609 2.09986 11.1747
-6.6289 4.14432 6.34514
-3.50695 1.29983 18.7166
-4.13662 2.88015 14.8333
-6.80325 2.94821 7.52268
-3.35476 2.19844 17.8894
-1.98773 0.871801 23.4184
-7.38117 5.19194 2.86463
-2.84406 1.41425 20.3528
-5.89004 2.3407 10.8319
-4.59441 2.07588 14.7034
-3.08594 1.38871 19.7335
-4.04495 2.04496 16.2331
-6.20735 2.41172 9.87518
-4.71991 1.84287 14.6851
-6.74194 2.78136 7.91866
-6.98736 3.02074 6.92438
-7.62472 4.77092 2.78607
-3.71807 2.63278 16.3072
-8.55791 4.1899 1.06174
-7.78884 2.99548 4.79013
-7.75519 3.58653 4.06619
-6.91883 3.30869 6.7128
-7.8061 4.54645 2.60472
-8.00188 4.67535 1.89714
-7.15568 3.151 6.28925
-6.91413 4.63677 4.89416
-4.43897 2.41789 14.6525
-5.86296 3.16206 9.77253
-3.5564 2.37344 17.1023
-4.62079 2.66156 13.8244
-5.3008 3.26483 11.1522
-8.84305 4.36111 0.0539679
-4.94043 2.60096 13.0429
-8.51806 4.04103 1.37487
-6.10737 2.41251 10.1447
-4.87759 1.82199 14.2872
-6.01799 3.2508 9.23058
-5.27228 2.8727 11.7701
-6.09495 3.73409 8.35588
-7.41875 4.9651 3.07573
-6.31901 3.06383 8.67376
-5.46285 3.66197 10.166
-6.70456 4.35054 5.85603
-8.28444 5.21748 0.384873
-5.70529 4.0181 9.0188
-4.19658 2.70143 14.9175
-8.44184 2.90628 3.14591
-5.32728 2.19055 12.5619
-8.16031 2.86918 3.95897
-3.21903 2.00251 18.5269
-8.94367 3.04885 1.59117
-5.26267 3.58844 10.8091
-4.48798 2.03797 15.0437
-7.95889 5.4114 0.998508
-6.41133 4.62668 6.26883
-8.90352 3.30824 1.34217
-2.6242 0.913338 21.6386
-3.77284 2.00973 17.0181
-6.80063 4.82423 4.94282
-5.75216 2.00851 11.6631
-2.60577 1.73342 20.5576
-5.04123 3.22003 11.9165
-7.65075 3.27165 4.78303
-8.38025 5.05519 0.349353
-5.67583 3.40018 9.95061
-8.37223 3.62558 2.34243
-4.61924 1.93628 14.8287
-6.61499 3.82901 6.81758
-8.10421 2.83662 4.15569
-4.38581 2.02712 15.3352
-7.39858 4.06211 4.3755
-4.27573 1.93665 15.7579
-3.44847 2.30771 17.4851
-3.48119 1.20797 18.913
-4.64737 2.41341 14.0947
-3.21325 1.90312 18.6796
-8.66845 3.32728 1.95209
-5.92432 4.20448 8.16902
-1.41281 0.534521 25.4394
-4.19045 1.72388 16.2821
-0.731361 0.244097 27.6841
-3.77211 1.82968 17.2683
-4.05302 2.40148 15.7196
-8.58249 4.56299 0.48074
-3.05845 1.03764 20.2919
-9.26205 3.19003 0.53488
-7.58302 2.58215 5.91711
-7.36973 3.2068 5.63299
-7.92764 4.42002 2.45013
-8.048 5.37101 0.813039
-6.12639 3.08889 9.16047
-4.454 3.16221 13.5855
-7.14612 2.63089 7.0323
-8.16609 5.40777 0.442757
-7.89652 4.03387 3.06684
-2.5562 1.5313 20.9705
-8.35422 4.9155 0.612428
-4.69785 2.74822 13.4964
-6.64902 3.66957 6.94535
-4.76861 3.0546 12.8824
-1.57741 0.682729 24.7895
-8.82337 3.50571 1.28678
-5.5871 2.65774 11.2145
-6.70709 4.47826 5.67306
-8.42727 3.34059 2.58644
-6.5929 2.27365 9.02213
-4.13699 1.40545 16.8659
-6.25896 2.95903 8.98079
-4.88155 2.34584 13.5541
-8.1258 5.14767 0.910475
-6.64522 2.43324 8.66046
-8.04497 3.74014 3.07012
-9.1735 3.23892 0.70709
-5.99328 2.17583 10.7798
-8.00811 5.21564 1.13524
-3.10819 2.07241 18.7304
-8.47592 3.79124 1.83336
-7.47954 5.01096 2.84796
-8.76098 4.25841 0.417693
-8.58983 3.30972 2.18907
-7.25167 4.41123 4.29166
-6.83546 3.99575 5.991
-7.03342 3.63327 5.9551
-4.36234 3.03185 14.0133
-8.27932 3.42873 2.86532
-3.90268 2.26465 16.3152
-6.39927 3.98896 7.18083
-4.13789 1.95116 16.1109
-7.58821 4.48236 3.2828
-6.07356 3.50178 8.73412
-8.07072 5.74506 0.235745
-8.46431 2.9891 2.97089
-7.62871 5.18776 2.20047
-7.00011 2.73368 7.28572
-6.20849 4.36042 7.18492
-2.67263 1.16991 21.1537
-8.12623 4.12232 2.3232
-2.27343 0.953412 22.5326
-5.41734 2.84541 11.4152
-7.64426 3.6481 4.28149
-7.52 3.94872 4.20325
-7.92242 3.82504 3.28472
-7.84264 2.5694 5.23209
-6.51985 4.65568 5.93514
-6.32107 4.53262 6.64278
-6.04858 4.30828 7.68959
-5.5779 2.94088 10.849
-4.50945 3.0007 13.6581
-6.55027 3.72556 7.13539
-6.15887 3.55658 8.42767
-5.95848 3.4255 9.15074
-7.66273 3.38875 4.58914
-6.2013 3.82036 7.94909
-4.51735 2.41639 14.4424
-6.49376 4.18489 6.65492
-5.04437 1.83751 13.8144
-6.35798 3.14729 8.45319
-8.64711 3.46121 1.82515
-3.67703 1.65208 17.7706
-5.69781 2.26264 11.4597
-6.06781 3.28447 9.04932
-6.964 2.29186 7.9927
-1.48865 0.554303 25.2069
-6.84467 2.37099 8.20654
-6.22052 4.46465 7.00863
-4.56727 3.13878 13.3112
-5.05096 2.76984 12.5109
-5.15036 2.33893 12.8361
-4.71816 1.62561 14.9894
-3.41992 1.47051 18.7168
-5.85294 3.41748 9.44744
-5.39243 2.61037 11.8067
