ply
format ascii 1.0
comment Created by Open3D
element vertex 1887
property double x
property double y
property double z
end_header
0.456797 9.92765 3.41339
0.606902 9.90388 4.67569
0.2993 9.9526 5.99598
2.19323 9.65263 2.14011
1.19934 9.81004 1.17839
0.162355 9.97429 3.07538
1.09365 9.82678 1.89813
2.57884 9.59155 0.118052
1.53853 9.75632 3.56591
0.650957 9.8969 3.16719
0.00339202 9.99946 2.72331
1.55204 9.75418 2.80733
0.88663 9.85957 4.174
1.69483 9.73156 1.10728
1.88292 9.70177 1.31384
1.40947 9.77676 3.91849
1.01455 9.83931 3.93258
1.96549 9.6887 2.41383
2.82409 9.55271 0.0151896
0.0958602 9.98482 0.195338
0.293767 9.95347 3.71355
0.723588 9.88539 3.48772
0.197259 9.96876 6.83023
0.672902 9.89342 1.49799
1.7868 9.717 0.714757
0.835536 9.86766 1.2322
0.213084 9.96625 1.68201
0.827903 9.86887 4.53826
0.849983 9.86538 3.73712
0.0679179 9.98924 4.01944
1.75504 9.72203 0.405886
1.1676 9.81507 1.53212
1.94192 9.69243 0.194167
1.12486 9.82184 4.62371
0.560032 9.9113 3.68754
1.2383 9.80387 0.189043
1.47673 9.76611 0.315639
0.549632 9.91295 1.76892
1.09263 9.82694 0.449905
1.40482 9.7775 3.28814
0.690574 9.89062 5.37818
0.076987 9.98781 2.14368
2.58388 9.59075 0.920817
1.18429 9.81243 2.90948
0.542537 9.91407 2.28412
0.47547 9.92469 0.00830938
2.68856 9.57417 0.676145
0.123323 9.98047 6.56526
0.736886 9.88329 2.61435
1.64886 9.73885 1.58477
0.3969 9.93714 0.348223
0.262881 9.95836 4.76195
1.87988 9.70226 2.87644
0.708721 9.88775 2.91149
1.51684 9.75976 2.2851
1.96849 9.68822 1.01898
0.100683 9.98405 6.286
2.29715 9.63617 1.34741
0.559161 9.91144 4.28898
2.06807 9.67245 0.743125
1.11342 9.82365 2.15263
0.405404 9.93579 0.950623
1.36961 9.78307 2.59839
1.18932 9.81163 3.42222
2.15345 9.65893 1.79947
0.280232 9.95562 2.7923
1.3459 9.78683 1.73359
0.893445 9.85849 3.2811
2.36853 9.62486 0.747568
0.638062 9.89894 3.96433
0.214598 9.96601 5.01717
0.674971 9.8931 4.96584
1.01946 9.83853 2.40877
2.07611 9.67118 1.53192
0.16515 9.97384 0.54877
0.0489045 9.99225 1.02156
2.36941 9.62472 0.350322
0.060974 9.99034 1.33467
0.400624 9.93655 1.4111
0.697122 9.88959 0.222692
1.48297 9.76512 0.631443
1.6527 9.73824 2.02327
2.78595 9.55875 0.370123
0.848047 9.86568 2.02628
0.497118 9.92126 5.14246
0.878091 9.86092 4.78951
0.323382 9.94878 4.18784
0.754754 9.88046 0.586925
0.0365634 9.99421 5.7607
0.533908 9.91544 5.90026
0.400921 9.9365 5.54915
0.963008 9.84747 2.72373
0.0405969 9.99357 1.86976
-0.522848 9.91719 1.99091
-2.51207 9.60213 6.87145
-1.68305 9.73343 4.66133
-0.623554 9.90124 2.4067
-2.17947 9.65481 6.16255
-1.5584 9.75317 6.08312
-2.04854 9.67554 5.66178
-1.13686 9.81994 4.82135
-0.964568 9.84723 2.61596
-1.89359 9.70009 4.81638
-1.00689 9.84052 4.04846
-1.14983 9.81788 4.28791
-0.131458 9.97918 0.404805
-0.813041 9.87123 6.5734
-1.39638 9.77883 7.03591
-0.0110347 9.99825 6.0038
-1.38839 9.7801 5.51176
-0.434525 9.93118 5.04474
-0.191132 9.96973 2.9347
-0.388951 9.9384 4.7085
-0.0207288 9.99672 4.61727
-0.205865 9.96739 5.47623
-0.553965 9.91226 3.75071
-0.538126 9.91477 7.26395
-1.81873 9.71194 5.42919
-0.454447 9.92802 6.8666
-2.66197 9.57838 7.22989
-1.49766 9.76279 5.74881
-1.93857 9.69296 5.96736
-0.254394 9.95971 2.08258
-0.0755307 9.98804 0.805867
-0.215754 9.96583 6.76365
-0.741286 9.88259 4.13762
-0.189049 9.97006 3.57151
-1.56629 9.75192 4.00254
-1.28064 9.79717 5.0767
-2.60796 9.58694 7.49111
-1.11289 9.82374 6.44268
-0.279813 9.95568 3.18668
-0.289087 9.95421 2.67284
-0.450133 9.92871 5.84492
-2.24209 9.64489 5.86139
-2.35849 9.62645 7.24036
-0.993053 9.84272 5.06005
-2.46144 9.61015 6.32555
-1.76707 9.72012 6.485
-0.0314056 9.99503 2.42901
-0.899098 9.8576 5.53439
-1.65831 9.73735 7.01394
-0.487724 9.92275 3.40203
-1.11061 9.8241 7.04153
-2.0748 9.67138 6.43957
-0.138629 9.97804 7.19892
-1.11833 9.82287 3.09166
-0.166734 9.97359 5.00874
-0.836142 9.86757 6.28505
-0.818262 9.8704 4.81208
-0.464232 9.92647 6.56871
-1.47862 9.76581 7.42253
-1.34388 9.78715 3.68693
-1.29615 9.79471 3.97208
-1.77818 9.71836 5.68532
-1.39994 9.77827 4.8235
-0.719817 9.88599 5.26269
-0.245606 9.9611 1.06493
-1.14013 9.81942 6.14042
-0.363426 9.94244 4.15448
-1.27143 9.79863 4.58684
-2.19595 9.6522 5.44239
-0.893191 9.85853 3.42046
-2.5688 9.59314 6.59683
-0.854672 9.86463 6.83957
-0.4149 9.93429 1.33578
-0.852775 9.86493 3.80952
-0.116705 9.98152 4.33117
-0.499247 9.92093 5.45437
-2.05536 9.67446 6.73162
-0.377122 9.94027 2.36406
-0.5303 9.91601 6.28651
-0.308259 9.95118 6.06967
-0.936156 9.85173 5.89606
-1.90088 9.69893 7.15096
-0.862505 9.86339 7.26508
-0.256616 9.95936 6.36279
-1.42071 9.77498 6.58065
-0.98093 9.84464 4.55716
-0.285334 9.95481 1.80328
-2.0345 9.67777 7.44499
-0.297674 9.95285 7.40869
-1.69057 9.73224 5.19142
-0.506964 9.9197 4.37181
-0.867676 9.86257 3.13985
-0.661691 9.8952 2.79982
-1.70543 9.72989 2.98166
-0.968824 9.84655 1.53427
-2.07418 9.67148 3.76078
-2.59531 9.58894 2.84936
-2.93713 9.5348 1.0975
-1.28308 9.79678 1.09884
-1.98981 9.68485 0.822956
-2.33064 9.63086 1.29903
-1.76391 9.72062 1.41361
-1.65439 9.73797 2.38402
-1.86011 9.70539 3.22676
-3.03362 9.51952 3.18772
-2.93925 9.53447 7.10605
-0.402302 9.93628 0.37365
-0.603236 9.90446 0.980316
-2.60456 9.58748 3.47668
-1.85805 9.70571 2.68446
-2.20148 9.65132 1.70988
-2.4281 9.61543 0.833146
-1.84704 9.70746 4.33758
-2.48095 9.60706 0.100947
-3.08789 9.51093 5.26154
-2.60977 9.58665 6.02319
-2.73787 9.56636 6.26776
-2.57152 9.59271 5.01205
-3.04494 9.51773 3.47451
-3.0086 9.52348 0.658508
-2.91124 9.53891 2.91931
-0.379096 9.93996 0.79391
-1.65957 9.73715 0.206815
-2.46607 9.60941 4.67484
-1.8966 9.69961 2.00413
-0.701263 9.88893 1.35534
-1.56644 9.7519 2.75847
-2.16617 9.65691 2.79069
-0.695166 9.8899 1.625
-2.81875 9.55355 3.82024
-1.19143 9.8113 1.38323
-0.935473 9.85184 1.19177
-2.30992 9.63415 3.19477
-2.92973 9.53598 0.265161
-1.74496 9.72363 3.49913
-1.47709 9.76605 3.46027
-1.21187 9.80806 1.84381
-2.15329 9.65895 4.59043
-2.40256 9.61947 0.443787
-1.79165 9.71623 0.52893
-2.78663 9.55864 6.74325
-1.38554 9.78055 2.27372
-0.166143 9.97369 0.00241445
-1.41634 9.77567 0.745956
-2.6708 9.57699 1.61966
-1.54192 9.75578 1.80045
-1.4889 9.76418 1.34972
-2.2086 9.65019 2.11304
-1.70326 9.73023 0.795806
-0.841963 9.86665 0.477887
-2.87037 9.54538 4.70917
-2.19592 9.6522 3.46857
-1.95737 9.68998 0.0801917
-1.15195 9.81755 0.626353
-2.70492 9.57158 4.13867
-1.9357 9.69342 1.74174
-2.40991 9.61831 2.35399
-1.35168 9.78591 2.60794
-1.50427 9.76175 3.17168
-1.89616 9.69968 1.19572
-3.07089 9.51362 6.13533
-2.66908 9.57726 0.988086
-0.944928 9.85034 2.24998
-2.43843 9.61379 1.91114
-0.867632 9.86258 1.80868
-2.82665 9.5523 2.44526
-2.12344 9.66368 0.518147
-2.72533 9.56835 4.44982
-2.71531 9.56994 1.27486
-2.9013 9.54048 2.10262
-2.0945 9.66826 5.05755
-0.910835 9.85574 0.762631
-2.86509 9.54622 1.78884
-1.28009 9.79725 0.355519
-2.62782 9.58379 5.32048
-2.27985 9.63891 3.93277
-1.04894 9.83386 0.161931
-2.81225 9.55458 5.80389
-2.0493 9.67542 4.04002
-1.35052 9.7861 2.93704
-2.36909 9.62477 4.35999
-2.64995 9.58029 0.340023
-2.96947 9.52968 1.46431
-2.99279 9.52599 4.95731
-1.97481 9.68722 2.36212
-2.75108 9.56427 3.15008
-3.01136 9.52305 5.58309
-3.52935 9.28679 1.99526
-3.66611 9.21711 6.33027
-3.65474 9.2229 7.0007
-3.41659 9.34425 4.56204
-4.97279 8.55132 6.55624
-3.35856 9.37381 0.759716
-5.51387 8.27563 7.04668
-4.43892 8.82334 4.46485
-4.10679 8.99257 3.93341
-3.93955 9.07778 3.75268
-3.45615 9.32409 5.78919
-3.53866 9.28205 3.85434
-4.22909 8.93026 7.21634
-3.68514 9.20741 5.4827
-3.45384 9.32527 3.48371
-3.64947 9.22559 2.96216
-4.84644 8.6157 4.7977
-3.23769 9.4354 6.71572
-3.28371 9.41195 5.00961
-4.17354 8.95856 2.99148
-4.54221 8.77071 6.9912
-3.38307 9.36132 5.28006
-3.99974 9.04712 4.21749
-4.25349 8.91782 6.9437
-4.44951 8.81795 6.09377
-4.27277 8.908 4.65153
-4.6866 8.69714 4.5919
-3.97769 9.05835 4.49206
-3.84615 9.12538 2.40788
-3.44456 9.33 4.11697
-4.92608 8.57512 5.9552
-3.20245 9.45335 6.42583
-4.65377 8.71387 5.62135
-3.62634 9.23737 4.82501
-3.4022 9.35158 3.02047
-4.9785 8.54841 7.44258
-4.30042 8.89391 4.21613
-3.20852 9.45026 3.88279
-3.24041 9.43401 1.54367
-3.40675 9.34926 2.37245
-3.39978 9.35281 7.32361
-3.10986 9.50053 4.60832
-5.33765 8.36542 6.15367
-4.36356 8.86174 5.5968
-3.54151 9.2806 6.69067
-3.96819 9.06319 4.77374
-5.28582 8.39182 7.26482
-3.74278 9.17804 4.42972
-3.84227 9.12735 7.22072
-4.67335 8.70389 7.4361
-3.27437 9.41671 4.33896
-3.19163 9.45887 1.15636
-3.92191 9.08677 3.07559
-3.69935 9.20017 3.22056
-4.5138 8.78519 4.03423
-5.15592 8.45801 6.35483
-5.46347 8.30131 6.41185
-4.12795 8.98179 4.96237
-3.13152 9.48949 2.38918
-4.1242 8.9837 6.1894
-5.69862 8.18149 7.34993
-4.7281 8.676 6.47665
-3.75005 9.17434 2.68246
-3.85803 9.11932 3.44509
-3.19294 9.4582 5.82469
-4.89459 8.59117 7.18885
-4.94079 8.56763 5.17673
-3.14377 9.48326 1.99867
-4.63898 8.72141 4.92862
-4.07703 9.00774 6.462
-4.27877 8.90494 6.62303
-3.72653 9.18632 5.15063
-3.2906 9.40844 6.99034
-4.38859 8.84899 4.87426
-3.62688 9.2371 7.43508
-5.11381 8.47947 6.76135
-3.60889 9.24626 1.73711
-4.76469 8.65735 5.36511
-4.25676 8.91616 5.85225
-5.20895 8.431 5.77652
-3.9608 9.06696 5.26061
-3.47652 9.31371 2.70718
-3.80565 9.14601 5.86431
-5.33864 8.36491 6.86298
-3.3647 9.37069 6.06645
-3.78484 9.15662 6.7843
-4.20931 8.94034 3.60168
-4.04096 9.02611 5.69861
-4.13203 8.97971 5.45916
-4.73376 8.67312 6.15179
-4.42199 8.83197 5.16033
-4.09037 9.00094 3.30351
-4.50334 8.79052 6.37386
-5.13247 8.46996 7.04537
-3.2738 9.417 0.153775
-5.39655 8.3354 2.89775
-4.19078 8.94978 1.46363
-3.93543 9.07988 0.213843
-4.65448 8.71351 2.96002
-5.44626 8.31008 5.26349
-4.07053 9.01105 0.480747
-5.08842 8.49241 4.16931
-5.08401 8.49465 0.284094
-5.6534 8.20453 6.63716
-5.58593 8.23891 1.23717
-5.65227 8.20511 5.80164
-5.51978 8.27262 4.70441
-4.93806 8.56902 0.789342
-5.71132 8.17502 1.95805
-4.83326 8.62242 4.09389
-4.84415 8.61687 0.551869
-5.45425 8.30601 2.28299
-5.54743 8.25853 3.70938
-5.33315 8.36771 3.51383
-5.20432 8.43335 5.1574
-4.79584 8.64148 3.71989
-4.72036 8.67994 1.82955
-5.80216 8.12874 0.227026
-5.41591 8.32554 4.43705
-3.90224 9.09679 1.18294
-4.91304 8.58177 4.48753
-4.37779 8.85449 1.887
-4.94675 8.56459 3.08442
-5.49762 8.28391 5.59401
-4.49596 8.79428 2.33951
-5.1204 8.47611 0.967285
-5.36666 8.35063 0.586922
-5.28336 8.39308 3.84654
-4.59347 8.74459 0.605612
-4.84735 8.61524 1.2741
-5.27924 8.39518 0.0878233
-5.8631 8.09769 5.98887
-5.08972 8.49175 1.30207
-4.68103 8.69998 3.45118
-5.00535 8.53473 1.99934
-3.64749 9.2266 0.62311
-5.85256 8.10306 5.31428
-5.71009 8.17565 5.06735
-5.57369 8.24515 0.225978
-5.65158 8.20546 2.7379
-3.60926 9.24607 0.874017
-5.09208 8.49054 1.75404
-4.0131 9.04031 0.912835
-4.55786 8.76274 2.06183
-5.50323 8.28105 4.03305
-5.63838 8.21219 0.863542
-4.27992 8.90436 2.15331
-4.42456 8.83066 1.33528
-3.91955 9.08798 2.10683
-5.47309 8.29641 1.98771
-4.48941 8.79762 0.922471
-5.70738 8.17703 3.52961
-4.56803 8.75756 3.75745
-3.62656 9.23726 1.34437
-4.35383 8.8667 3.20361
-5.32222 8.37328 1.23551
-4.61676 8.73273 1.17312
-5.82577 8.11671 4.43916
-5.75401 8.15327 0.587285
-3.65694 9.22178 0.275567
-4.19044 8.94995 0.760532
-5.22894 8.4208 2.26237
-3.89581 9.10007 1.60271
-5.58542 8.23917 3.19902
-5.71654 8.17236 1.54848
-4.94249 8.56676 2.45959
-4.6897 8.69556 2.61159
-4.43351 8.8261 0.402687
-4.74126 8.66929 0.0995396
-5.73939 8.16072 3.9608
-5.87381 8.09223 2.59526
-4.1832 8.95364 2.57094
-5.18293 8.44425 5.41101
-5.14617 8.46298 4.82223
-5.8517 8.10349 6.83013
-4.7243 8.67794 2.33878
-4.99896 8.53799 3.36645
-5.17442 8.44859 3.05256
-4.80722 8.63568 1.5582
-5.86426 8.09709 1.01652
-5.34692 8.36069 2.59025
-5.63605 8.21337 4.24247
-3.40278 9.35128 0.478812
-4.13937 8.97597 1.7448
-5.69972 8.18093 6.24068
-4.51371 8.78523 1.68197
-6.03613 7.93189 2.47251
-6.04701 7.92101 3.14975
-6.997 6.97103 7.44231
-6.32592 7.6421 3.13119
-7.22732 6.7407 6.38707
-6.09971 7.86831 6.31064
-6.33692 7.63111 6.31903
-6.60188 7.36615 7.19688
-6.26483 7.70319 2.48346
-7.0882 6.87982 4.14066
-5.96275 8.00527 7.11213
-6.05845 7.90957 5.97191
-6.41846 7.54956 2.28643
-6.50586 7.46216 5.46828
-6.5209 7.44712 6.50302
-6.63351 7.33451 6.17705
-6.92583 7.04219 4.72591
-7.21667 6.75135 5.60276
-7.42997 6.53805 5.32773
-6.22115 7.74687 6.81682
-6.25658 7.71145 3.57027
-7.11502 6.853 4.61544
-6.70462 7.2634 4.65069
-6.68337 7.28465 6.94107
-7.68157 6.28646 6.45332
-6.60739 7.36063 4.86641
-7.07707 6.89095 5.04334
-6.37162 7.59641 4.53245
-6.10911 7.85891 0.820643
-6.97724 6.99078 5.68391
-7.26132 6.70671 7.02915
-5.89601 8.07201 3.33636
-6.84729 7.12074 6.5249
-6.58306 7.38496 2.71849
-6.06255 7.90548 1.71844
-5.97254 7.99548 1.29862
-7.5439 6.42413 6.76668
-6.35165 7.61637 7.41282
-6.91973 7.0483 6.02451
-6.87855 7.08947 6.80816
-6.52826 7.43977 3.80778
-7.06914 6.89889 6.85256
-6.40878 7.55924 3.3531
-6.80266 7.16536 3.46902
-6.16364 7.80438 1.18293
-6.79514 7.17288 5.25339
-6.59139 7.37663 5.78398
-5.91258 8.05544 2.11712
-6.77993 7.18809 5.84108
-6.8354 7.13262 4.45594
-6.7104 7.25762 3.21612
-7.90492 6.0631 7.49996
-6.58709 7.38093 4.31379
-6.02561 7.94241 6.59434
-7.17948 6.78854 5.28436
-6.63454 7.33348 7.47839
-6.33234 7.63569 6.59014
-5.90576 8.06226 2.92761
-6.25154 7.71648 7.1661
-5.95845 8.00957 7.42564
-7.76582 6.2022 6.71513
-6.56061 7.40742 2.44589
-6.82212 7.1459 4.19092
-7.29984 6.66819 6.75299
-6.91086 7.05716 7.08011
-7.44719 6.52083 5.81075
-6.20636 7.76166 2.16163
-6.99063 6.97739 5.38581
-6.41505 7.55297 4.18828
-6.27457 7.69345 1.90485
-6.25642 7.7116 5.77301
-6.2653 7.70273 6.07285
-7.7979 6.17012 7.22993
-6.43024 7.53779 6.8308
-7.47358 6.49445 6.39105
-6.13311 7.83491 3.89927
-5.93627 8.03176 0.756444
-6.13741 7.83061 4.78091
-7.52663 6.4414 7.12655
-7.08647 6.88155 6.21831
-7.67717 6.29085 6.98824
-5.95846 8.00956 5.54324
-6.18824 7.77978 5.34793
-6.37579 7.59223 5.10731
-6.03553 7.93249 4.27586
-7.18249 6.78553 7.31962
-6.22042 7.7476 4.28906
-6.41223 7.55579 2.87784
-7.53342 6.43461 7.45913
-6.74576 7.22227 3.91795
-7.16099 6.80703 5.88037
-6.60496 7.36307 3.46162
-6.04338 7.92465 3.65333
-5.89693 8.0711 4.90999
-6.17297 7.79505 5.06469
-7.05168 6.91635 6.53046
-7.37424 6.59378 6.15174
-8.05397 5.91406 4.44586
-8.08992 5.8781 2.64047
-6.01337 7.95465 0.145782
-7.87835 6.08967 3.88891
-6.85282 7.1152 0.291323
-7.31414 6.65388 2.37257
-6.40397 7.56405 1.36951
-8.05058 5.91745 6.46888
-7.06539 6.90263 0.00688093
-7.54882 6.4192 0.64372
-7.98812 5.9799 1.87752
-7.26101 6.70701 1.45035
-7.18774 6.78028 3.01825
-7.85048 6.11754 6.31428
-7.67966 6.28836 3.05022
-8.07146 5.89657 3.8955
-7.95358 6.01444 5.62783
-7.54634 6.42168 4.83526
-6.94347 7.02455 0.857732
-7.8624 6.10562 0.56871
-6.8938 7.07423 1.31634
-8.00715 5.96087 1.3914
-7.83796 6.13006 4.24671
-7.39178 6.57624 3.796
-7.97542 5.9926 6.79129
-6.54908 7.41894 2.06662
-6.00593 7.9621 0.410724
-7.55331 6.41472 5.52896
-8.05102 5.917 3.07143
-6.76669 7.20133 2.56177
-7.05345 6.91457 1.81447
-7.92662 6.0414 4.66317
-7.71081 6.25721 3.72319
-6.93265 7.03537 3.14465
-7.93145 6.03657 3.26965
-7.79529 6.17273 5.40523
-7.56212 6.4059 2.82446
-6.79457 7.17345 1.59603
-7.56761 6.40041 0.15995
-7.06552 6.9025 3.88143
-6.91764 7.05038 2.86909
-6.40868 7.55934 0.765033
-7.64573 6.32229 4.47967
-7.10357 6.86445 2.75031
-6.65229 7.31573 0.339231
-7.06378 6.90424 2.47913
-7.52965 6.43838 1.10741
-7.69964 6.26838 2.50158
-6.42574 7.54229 0.350646
-7.09848 6.86954 1.19912
-7.33482 6.63321 4.07503
-8.01846 5.94957 5.33327
-7.32417 6.64385 0.0274094
-7.43009 6.53793 3.3887
-7.88378 6.08424 4.92326
-6.66018 7.30785 0.00297369
-6.99015 6.97788 3.41095
-7.79419 6.17384 0.0696145
-6.42858 7.53944 1.63684
-8.08934 5.87868 5.98979
-7.35511 6.61292 2.65818
-7.63065 6.33737 2.14127
-7.71236 6.25567 0.800559
-7.47054 6.49749 3.09683
-7.88531 6.08271 5.8691
-6.5585 7.40952 1.16256
-7.19589 6.77214 0.380037
-8.03232 5.9357 0.759302
-6.57168 7.39635 0.644232
-7.42659 6.54143 0.332366
-7.67065 6.29737 3.97997
-7.8914 6.07662 1.0225
-7.54341 6.42461 1.60156
-7.8003 6.16772 1.82845
-7.2653 6.70272 1.9233
-6.26739 7.70064 0.0817685
-6.75969 7.20833 1.01584
-6.74054 7.22749 2.914
-7.02105 6.94697 0.558635
-7.85454 6.11348 3.53927
-8.02302 5.94501 0.460073
-7.87596 6.09206 2.20196
-7.41757 6.55045 4.55418
-7.28421 6.68381 3.58871
-7.33862 6.6294 1.12313
-7.71252 6.2555 5.78926
-7.70691 6.26112 1.33414
-7.3645 6.60353 0.833914
-6.85027 7.11775 1.89497
-8.00211 5.96592 0.0253403
-6.8298 7.13822 2.1663
-7.65524 6.31279 3.43534
-6.28676 7.68126 0.995289
-6.20601 7.76201 0.534116
-7.867 6.10103 2.66864
-7.69573 6.27229 5.03402
-8.79436 4.49581 5.43347
-8.32541 5.41617 3.57123
-8.60386 4.86969 5.3106
-8.29077 5.48414 2.98176
-8.61915 4.83968 5.89076
-8.78054 4.52293 5.10583
-8.10519 5.84837 4.77205
-8.47053 5.13135 2.08974
-8.32308 5.42073 5.10662
-8.18876 5.68436 5.11064
-8.47695 5.11876 6.01381
-8.24783 5.56843 5.3307
-8.965 4.1609 7.37673
-8.72572 4.63051 5.78654
-8.95173 4.18695 4.6615
-8.529 5.0166 2.85023
-9.06592 3.96283 7.02682
-8.14596 5.76835 7.07975
-8.62178 4.83451 4.42564
-8.24131 5.58122 0.885188
-8.23032 5.60278 3.9803
-8.31654 5.43358 4.58181
-8.10535 5.84806 3.5951
-8.35794 5.35233 3.92183
-8.56629 4.94342 3.84299
-8.20318 5.65605 6.40986
-8.1927 5.67663 6.7463
-8.29957 5.46688 2.30298
-8.44634 5.17883 3.75554
-8.33535 5.39666 2.65539
-8.42318 5.22428 5.51566
-8.56855 4.93898 6.54895
-8.33969 5.38815 1.97991
-8.20692 5.64872 1.46357
-9.0784 3.93835 5.75144
-9.03896 4.01575 6.01264
-8.46614 5.13996 5.24475
-9.1713 3.75601 6.04409
-8.7418 4.59895 4.49693
-8.40968 5.25078 7.1637
-8.27853 5.50817 1.14426
-8.9361 4.21762 6.88907
-9.21965 3.66113 6.99409
-8.70778 4.66572 6.44735
-8.82097 4.44358 7.24768
-9.33995 3.42502 7.22721
-8.42273 5.22517 3.04107
-9.00288 4.08656 5.49287
-9.17606 3.74668 6.34732
-8.61425 4.84929 3.26835
-8.46152 5.14903 4.66212
-8.28196 5.50145 7.10192
-8.26148 5.54163 4.27007
-8.63135 4.81574 5.59028
-8.16711 5.72685 2.24322
-8.47342 5.12567 6.74767
-8.94554 4.1991 6.50407
-8.18086 5.69987 2.88459
-8.93534 4.2191 5.15405
-8.70249 4.67612 3.77456
-8.42657 5.21764 6.30554
-9.2071 3.68575 7.39264
-8.5352 5.00443 3.54098
-8.56223 4.95139 4.21238
-8.30751 5.4513 6.54064
-8.72952 4.62306 4.80073
-8.17271 5.71585 0.640823
-8.36871 5.33118 5.78146
-8.40501 5.25995 7.45043
-8.2517 5.56083 5.98661
-8.40596 5.25808 4.40111
-8.09078 5.87666 7.31295
-8.16906 5.72301 5.5806
-8.52997 5.01469 7.3083
-8.68602 4.70844 7.23352
-8.65017 4.77879 6.92851
-8.21623 5.63045 3.39938
-8.20593 5.65067 1.72696
-8.42699 5.21681 2.4869
-8.92561 4.23821 6.19096
-9.07912 3.93693 6.5455
-8.85197 4.38274 4.18536
-8.41709 5.23623 3.40695
-9.26186 3.57828 6.72182
-8.10296 5.85275 1.09434
-8.13262 5.79454 4.22772
-8.61679 4.8443 6.2293
-8.86802 4.35124 5.8186
-9.40733 3.29277 7.45276
-8.74962 4.5836 6.79451
-8.42411 5.22245 4.98068
-8.72598 4.63 1.16681
-9.24771 3.60606 0.120834
-8.42596 5.21882 1.72822
-9.2394 3.62237 0.781077
-8.78569 4.51282 2.01915
-9.46777 3.17417 6.97749
-9.23723 3.62661 4.67858
-9.08172 3.93182 2.21292
-9.21493 3.67038 1.10135
-9.22255 3.65544 3.96905
-9.34308 3.41889 1.58284
-9.43476 3.23896 5.80152
-8.13683 5.78628 0.177868
-8.73942 4.60363 3.38618
-9.19028 3.71876 3.72362
-9.0393 4.01509 3.59285
-9.39202 3.32283 3.50552
-9.1178 3.86102 4.85138
-8.95506 4.18041 2.08941
-8.49928 5.07493 0.542035
-9.25862 3.58464 5.40464
-9.2246 3.65141 5.81414
-8.35843 5.35137 0.432288
-8.85253 4.38164 2.87835
-9.01049 4.07162 3.89307
-8.73448 4.61333 0.503592
-9.30564 3.49237 4.37834
-9.45282 3.2035 0.516724
-9.10484 3.88646 4.26225
-9.23604 3.62895 2.5259
-8.92909 4.23138 1.46001
-8.37295 5.32287 0.952119
-8.72664 4.62871 1.45286
-9.10952 3.87726 0.2983
-9.03488 4.02375 3.30355
-8.93621 4.2174 2.69958
-9.46051 3.18842 6.58873
-9.42288 3.26227 3.01519
-8.91165 4.2656 2.42717
-9.35594 3.39363 0.857974
-9.33489 3.43496 1.85973
-9.47692 3.1562 0.803839
-8.75805 4.56707 1.76387
-8.69226 4.69619 0.778839
-9.27239 3.55761 3.0473
-9.50746 3.09627 3.99295
-8.86988 4.34759 0.22289
-9.21118 3.67775 5.01205
-9.32665 3.45113 6.04171
-8.91297 4.26302 1.07774
-8.84164 4.40301 3.20278
-9.10382 3.88846 1.70657
-9.3641 3.37763 2.29244
-9.03742 4.01876 1.01557
-9.22019 3.66007 1.89582
-9.20077 3.69818 3.43548
-8.73922 4.60402 2.44597
-9.14792 3.8019 1.44269
-9.3362 3.43238 5.59845
-9.3602 3.38528 3.25485
-9.36861 3.36877 4.95442
-9.12241 3.85196 2.65835
-9.05546 3.98337 5.07741
-9.00703 4.07841 0.693332
-8.92044 4.24835 3.47218
-9.48044 3.1493 5.5386
-9.02886 4.03556 0.115047
-8.43897 5.1933 1.25722
-8.22577 5.61172 0.366469
-8.84074 4.40478 3.80758
-9.50908 3.09309 1.22821
-8.56727 4.94149 1.01036
-9.40054 3.30611 2.76568
-9.1335 3.8302 5.50006
-8.80721 4.47059 0.802548
-9.39999 3.30719 1.30136
-9.13103 3.83505 4.55426
-8.62864 4.82105 0.364622
-9.43708 3.23438 0.126543
-8.58426 4.90814 1.81775
-8.66778 4.74422 0.052815
-8.98624 4.11921 0.373075
-8.60002 4.87721 2.12084
-8.54771 4.97988 1.52972
-9.43729 3.23397 6.21843
-9.07035 3.95413 3.03381
-8.62564 4.82694 2.69778
-9.42017 3.26758 4.27435
-8.44963 5.17236 0.208519
-8.66898 4.74187 2.96235
-9.47917 3.15178 1.5338
-8.27845 5.50833 0.00324086
-8.39281 5.28389 0.679658
-9.05933 3.97576 1.94988
-9.39592 3.31518 3.76731
-9.19662 3.70633 2.174
-9.26967 3.56294 1.35368
-9.27415 3.55416 0.457096
-8.95177 4.18686 4.37751
-9.51073 3.08915 5.25442
-9.65073 2.20523 7.15329
-9.671 2.07721 5.13667
-9.62195 2.38693 3.55817
-9.59989 2.52618 6.41314
-9.57687 2.67153 4.98201
-9.71004 1.83074 4.99304
-9.59834 2.53597 3.77763
-9.73574 1.66848 4.5154
-9.81901 1.1427 5.78128
-9.8742 0.794265 5.94103
-9.87015 0.819867 7.1617
-9.66669 2.10443 3.21005
-9.9032 0.6112 6.50113
-9.51235 3.07889 4.63889
-9.69624 1.9179 5.69082
-9.78086 1.38359 5.34666
-9.71121 1.82335 3.27977
-9.73394 1.67984 3.6707
-9.63115 2.32883 2.7163
-9.51594 3.05623 2.71479
-9.64768 2.22444 2.18323
-9.65821 2.15797 6.16365
-9.69256 1.94107 7.31879
-9.69821 1.90545 4.26005
-9.5378 2.91822 6.5006
-9.71045 1.82817 5.99686
-9.58572 2.61568 1.79234
-9.90524 0.598312 7.32006
-9.77828 1.39986 4.24054
-9.5416 2.89425 2.50315
-9.52815 2.97912 6.79472
-9.70997 1.83117 5.39289
-9.59273 2.57137 5.9397
-9.84914 0.952514 6.62817
-9.68684 1.9772 6.75052
-9.58438 2.62413 4.69998
-9.58897 2.59512 5.25695
-9.76818 1.46364 6.50182
-9.632 2.32349 4.05833
-9.68463 1.99118 7.00652
-9.67948 2.02367 2.76387
-9.58909 2.5944 2.59077
-9.86741 0.837138 6.34446
-9.61685 2.41913 4.88898
-9.82601 1.09852 7.31289
-9.78265 1.37231 7.17064
-9.60727 2.47958 6.74673
-9.62764 2.35097 5.75943
-9.59132 2.58031 4.11176
-9.57911 2.65737 3.55319
-9.58506 2.61983 1.32665
-9.53225 2.95327 4.31594
-9.783 1.37008 4.5266
-9.74325 1.62105 6.18254
-9.55974 2.77969 1.59733
-9.58589 2.6146 6.99591
-9.75932 1.51961 4.78399
-9.86971 0.8226 7.49833
-9.5373 2.92135 0.959781
-9.70164 1.88379 6.50297
-9.71329 1.81019 3.88047
-9.58392 2.62705 2.08934
-9.59239 2.57353 4.36799
-9.77857 1.39803 5.7349
-9.62595 2.36165 1.94078
-9.53605 2.9293 6.18942
-9.66658 2.10513 3.90357
-9.55037 2.83885 5.37233
-9.87121 0.813177 6.85657
-9.64235 2.2581 6.56747
-9.84314 0.990345 6.09403
-9.80444 1.2347 5.01714
-9.54204 2.89144 4.81812
-9.5499 2.84181 3.96002
-9.61797 2.41202 3.24202
-9.66315 2.12676 4.83107
-9.54232 2.88967 3.31106
-9.70791 1.84417 4.73199
-9.95421 0.289078 7.03813
-9.60522 2.49254 7.26487
-9.8316 1.06321 6.93442
-9.6684 2.09364 3.62281
-9.65061 2.20599 4.46557
-9.78487 1.35825 6.18128
-9.80966 1.20174 6.45494
-9.6514 2.20095 5.35522
-9.83487 1.0426 5.45962
-9.69907 1.9 3.00436
-9.55868 2.78636 5.75899
-9.53373 2.94394 7.28868
-9.74498 1.61014 5.12107
-9.53668 2.92526 2.08587
-9.94986 0.316577 7.32749
-9.74886 1.58566 6.79538
-9.57291 2.69654 3.07586
-9.62016 2.39823 1.46943
-9.6462 2.23383 0.490663
-9.81076 1.19482 1.77197
-9.9944 0.0353322 6.99151
-9.96836 0.199752 1.53017
-9.99415 0.0369257 6.36471
-9.72024 1.76632 1.93116
-9.98934 0.0672938 0.649589
-9.87895 0.764271 5.54868
-9.6309 2.33037 0.167118
-9.93206 0.428978 1.33468
-9.79765 1.2776 0.773963
-9.80904 1.20567 3.36401
-9.72544 1.7335 0.0642508
-9.93587 0.404895 4.96337
-9.88633 0.717679 4.7112
-9.72719 1.72245 0.933053
-9.7175 1.78361 2.53794
-9.89945 0.634852 2.63316
-9.85094 0.941133 3.05166
-9.96952 0.192417 1.12071
-9.85137 0.938412 2.73263
-9.8763 0.781025 3.39072
-9.98951 0.0662155 2.88371
-9.93132 0.433657 3.46383
-9.62759 2.35131 0.75708
-9.74703 1.59716 3.11425
-9.82264 1.11979 1.0213
-9.76329 1.49454 2.5574
-9.85241 0.931839 3.90379
-9.86 0.883937 0.84591
-9.86848 0.830396 3.64157
-9.9191 0.510809 5.85573
-9.91907 0.510984 2.41883
-9.84691 0.966583 1.31344
-9.93573 0.405756 0.669189
-9.63179 2.3248 1.17853
-9.92974 0.443573 4.33771
-9.96566 0.216788 3.32864
-9.92952 0.444982 2.13835
-9.8689 0.827737 5.10193
-9.92611 0.466545 0.993139
-9.69991 1.89469 2.23011
-9.86853 0.830074 4.23998
-9.84924 0.951852 2.45246
-9.98986 0.0640458 5.81758
-9.80608 1.22435 3.81523
-9.96448 0.224285 2.57638
-9.96223 0.238481 4.60993
-9.79769 1.27732 2.38707
-9.89656 0.653083 3.10632
-9.82985 1.07429 4.37528
-9.78565 1.35337 3.01205
-9.94295 0.360228 6.36447
-9.91981 0.506297 1.87389
-9.56584 2.74115 0.690421
-9.95854 0.261749 0.254061
-9.93314 0.422124 3.73446
-9.69022 1.95585 0.791537
-9.77003 1.45195 1.66729
-9.99693 0.0194129 5.00246
-9.91181 0.556778 5.22432
-9.67766 2.03518 1.23345
-9.73615 1.66586 1.43777
-9.60088 2.51993 0.526174
-9.83372 1.04983 2.01531
-9.85516 0.914506 1.57673
-9.9387 0.387039 5.40672
-9.69856 1.90325 1.66278
-9.9108 0.563195 0.44269
-9.88111 0.750627 1.18472
-9.817 1.15541 0.263028
-9.9427 0.361792 0.0103885
-9.98285 0.108267 6.08198
-9.86797 0.833574 2.20992
-9.56542 2.74386 0.343345
-9.65588 2.17267 1.61139
-9.76425 1.48846 0.184389
-9.68507 1.98838 0.0680447
-9.91348 0.54625 4.01989
-9.98267 0.109411 4.21007
-9.80715 1.21761 2.75869
-9.72247 1.75225 0.440526
-9.78032 1.387 3.60416
-9.58759 2.60388 1.04514
-9.81227 1.18526 1.49987
-9.86363 0.861031 0.123909
-9.9642 0.226052 6.64833
-9.76791 1.46535 1.06916
-9.96435 0.225076 1.77705
-9.86998 0.820917 0.43455
-9.76415 1.4891 0.544887
-9.8414 1.00133 4.81253
-9.82739 -1.08984 2.76515
-9.83873 -1.01819 2.48892
-9.9803 -0.124357 4.61936
-9.87261 -0.80429 6.27325
-9.91206 -0.55521 2.46822
-9.73259 -1.68836 4.9204
-9.92632 -0.4652 6.79616
-9.66761 -2.09863 5.37007
-9.88141 -0.748763 4.96178
-9.80782 -1.21338 6.67604
-9.98318 -0.106172 2.67802
-9.86959 -0.823376 6.52976
-9.69913 -1.89964 7.33947
-9.98684 -0.0830629 1.77764
-9.98145 -0.11713 3.82354
-9.94357 -0.356305 3.56424
-9.94849 -0.325232 2.20015
-9.58896 -2.59523 7.19845
-9.75891 -1.52221 3.92147
-9.82018 -1.13535 4.97877
-9.93917 -0.384042 1.75922
-9.71685 -1.78776 5.86584
-9.7581 -1.52731 6.61811
-9.63166 -2.32563 6.71619
-9.95071 -0.311176 6.37932
-9.90035 -0.629149 1.64977
-9.95404 -0.290203 0.736368
-9.87268 -0.803837 3.98514
-9.95645 -0.274958 1.07534
-9.97799 -0.138974 6.78787
-9.84494 -0.978979 3.56667
-9.93891 -0.385713 4.38175
-9.70747 -1.84698 4.65569
-9.83362 -1.05048 3.85757
-9.99182 -0.0516587 5.40618
-9.64453 -2.24435 7.32884
-9.6463 -2.23315 5.66808
-9.63176 -2.32501 6.31149
-9.70226 -1.87984 6.72108
-9.74783 -1.59215 5.70991
-9.74419 -1.61511 7.06322
-9.8637 -0.860547 4.24957
-9.91391 -0.543582 1.98451
-9.85104 -0.940485 5.88187
-9.8294 -1.07713 5.26102
-9.91888 -0.512164 5.55726
-9.79707 -1.28126 4.32089
-9.78858 -1.33486 7.12417
-9.62812 -2.34797 5.93348
-9.93975 -0.380431 7.45537
-9.91881 -0.51263 6.53906
-9.89445 -0.666442 4.61819
-9.93734 -0.39561 5.88506
-9.81234 -1.18483 3.34513
-9.71494 -1.79983 4.38602
-9.81915 -1.14183 6.17569
-9.5699 -2.71554 6.63769
-9.9482 -0.32706 5.00825
-9.97835 -0.136681 7.39419
-9.97602 -0.151378 2.40085
-9.97961 -0.128711 4.35345
-9.79415 -1.29967 4.03957
-9.94848 -0.325266 4.07544
-9.90018 -0.630222 5.19224
-9.58904 -2.59472 6.40095
-9.88617 -0.718705 3.15726
-9.85925 -0.888631 5.43003
-9.90829 -0.579003 3.76301
-9.75742 -1.5316 5.14882
-9.83319 -1.05318 4.58439
-9.64939 -2.21367 6.95532
-9.91447 -0.539985 2.93401
-9.66421 -2.12009 6.11873
-9.96474 -0.222595 7.06843
-9.98643 -0.0856917 3.49835
-9.87341 -0.79927 6.81739
-9.85655 -0.905705 7.34543
-9.78164 -1.37869 3.52899
-9.9017 -0.620634 7.19981
-9.77778 -1.40303 4.88696
-9.97298 -0.170582 3.19097
-9.75806 -1.52754 4.3415
-9.89061 -0.690637 2.70957
-9.7693 -1.45656 6.29551
-9.79261 -1.30942 5.53588
-9.60323 -2.50511 6.89709
-9.93318 -0.421916 3.23759
-9.77924 -1.39384 4.60589
-9.99095 -0.0571335 1.24229
-9.69314 -1.93745 6.42887
-9.94164 -0.368474 4.69539
-9.89426 -0.667608 6.00939
-9.96582 -0.215796 1.50962
-9.75502 -1.54675 6.00881
-9.72532 -1.73425 5.34602
-9.67924 -2.02521 5.09823
-9.55408 -2.81545 0.290103
-9.53129 -2.95929 3.96784
-9.61556 -2.42728 1.16469
-9.72546 -1.73335 2.73346
-9.75169 -1.56776 3.17499
-9.52929 -2.97193 6.30688
-9.61989 -2.39992 4.19833
-9.79525 -1.29277 0.673292
-9.84246 -0.994649 0.246328
-9.72225 -1.75364 2.44776
-9.53443 -2.93951 0.566675
-9.612 -2.44974 5.38359
-9.57975 -2.65335 1.60945
-9.64026 -2.2713 0.923239
-9.97655 -0.148037 0.19054
-9.64017 -2.27187 0.377451
-9.70374 -1.8705 0.150049
-9.84446 -0.982062 1.55246
-9.58073 -2.64714 0.0574584
-9.70477 -1.864 3.69969
-9.71718 -1.78566 1.29479
-9.58352 -2.62954 4.02972
-9.68694 -1.9766 0.446881
-9.52869 -2.97571 2.11528
-9.51424 -3.06699 6.0353
-9.7674 -1.46857 1.34347
-9.6572 -2.16438 0.623588
-9.56607 -2.73976 4.33662
-9.52054 -3.02719 2.41542
-9.75518 -1.54574 0.47768
-9.5354 -2.93335 7.0833
-9.76622 -1.47601 2.83929
-9.80007 -1.26231 2.57785
-9.69914 -1.89955 2.06442
-9.63554 -2.30113 5.12268
-9.52789 -2.9808 4.78832
-9.64048 -2.26994 2.17772
-9.54046 -2.90143 5.53147
-9.51413 -3.06768 0.910481
-9.56294 -2.75951 1.32134
-9.60218 -2.51173 4.80463
-9.62176 -2.3881 1.48628
-9.88577 -0.721224 1.20208
-9.67538 -2.04956 3.18185
-9.56575 -2.74177 5.25796
-9.51912 -3.03617 3.55743
-9.64117 -2.26557 2.65149
-9.58248 -2.6361 5.60043
-9.83221 -1.05941 0.985457
-9.65261 -2.19332 0.0464384
-9.56969 -2.71686 2.32657
-9.54833 -2.85172 3.26623
-9.66106 -2.13996 1.62176
-9.59125 -2.58074 3.09423
-9.74249 -1.62586 1.92986
-9.67461 -2.05445 4.47704
-9.67978 -2.0218 2.4632
-9.84189 -0.998237 1.3016
-9.84877 -0.954823 2.06745
-9.79152 -1.31631 0.190733
-9.5848 -2.6215 3.63652
-9.58776 -2.60281 2.5986
-9.66372 -2.1232 3.82591
-9.63569 -2.30017 1.89499
-9.76163 -1.50501 1.62434
-9.71235 -1.81613 1.7361
-9.66689 -2.10317 1.26184
-9.78399 -1.36386 2.21332
-9.79934 -1.26689 1.49422
-9.61007 -2.46189 2.37522
-9.69316 -1.93728 0.773091
-9.95505 -0.283785 0.419944
-9.79315 -1.30601 1.84875
-9.90498 -0.59996 0.68436
-9.68656 -1.97901 3.46254
-9.53271 -2.95038 5.03727
-9.6312 -2.32852 3.62415
-9.79443 -1.29789 3.04442
-9.56436 -2.75053 6.08428
-9.52212 -3.01724 2.87581
-9.5247 -3.00095 1.2474
-9.56907 -2.72077 1.93258
-9.90761 -0.583322 0.0222285
-9.55602 -2.80316 0.846526
-9.63295 -2.31746 4.61625
-9.64269 -2.25598 2.97807
-9.55339 -2.81976 5.82998
-9.71847 -1.7775 3.02138
-9.59163 -2.57836 0.724981
-9.86246 -0.868423 0.592482
-9.69089 -1.95167 4.03762
-9.74793 -1.59154 0.994517
-9.16867 -3.76118 6.09506
-9.42438 -3.25931 5.05723
-8.93582 -4.21816 3.7401
-9.07501 -3.945 2.44361
-9.30514 -3.49335 3.95449
-8.64924 -4.78061 7.36207
-8.58371 -4.90922 5.19894
-8.90358 -4.28145 4.94136
-8.21768 -5.6276 7.35896
-9.16389 -3.77055 4.69621
-9.44567 -3.21754 3.9685
-8.77159 -4.54049 7.1439
-9.03884 -4.01598 2.75277
-8.7339 -4.61447 6.29521
-9.13941 -3.81861 5.25589
-8.45655 -5.1588 6.78917
-8.77985 -4.52428 5.50312
-8.55389 -4.96776 6.15658
-9.08174 -3.93178 3.20439
-8.98754 -4.11667 3.50827
-9.20616 -3.6876 2.07653
-8.28672 -5.4921 6.52167
-9.24879 -3.60394 4.24151
-8.79391 -4.49669 6.65371
-9.50506 -3.10098 4.50738
-8.93805 -4.2138 7.26123
-9.45812 -3.19309 6.67477
-9.459 -3.19137 1.67131
-9.31356 -3.47682 6.93565
-8.78191 -4.52023 5.99424
-9.39446 -3.31804 1.91297
-9.17644 -3.74593 2.68598
-9.49342 -3.12383 5.64913
-8.89087 -4.30639 3.3353
-9.04108 -4.01159 6.60972
-8.47838 -5.11594 7.49901
-9.022 -4.04904 5.05596
-8.58099 -4.91456 5.65308
-9.15791 -3.78229 5.74527
-9.42251 -3.26299 1.36819
-9.37763 -3.35107 3.36847
-9.35745 -3.39068 7.24508
-9.44689 -3.21513 0.415519
-9.3897 -3.32738 3.69004
-8.39275 -5.284 7.20282
-9.02688 -4.03946 5.45304
-8.23749 -5.58873 6.8639
-9.39961 -3.30793 2.24959
-9.19573 -3.70806 6.42199
-9.29822 -3.50693 5.98008
-9.19404 -3.71138 6.94766
-9.37588 -3.35451 4.59656
-8.97246 -4.14627 4.04935
-8.88448 -4.31893 5.69183
-8.65538 -4.76857 5.90899
-9.22727 -3.64617 4.94062
-9.41246 -3.28271 1.08655
-9.03769 -4.01824 7.47421
-8.5375 -4.99993 7.22331
-9.01894 -4.05504 5.93524
-9.48532 -3.13972 7.23999
-8.84009 -4.40604 5.24879
-9.20725 -3.68545 3.01116
-8.94471 -4.20072 6.85055
-9.27399 -3.55448 1.83273
-8.85736 -4.37216 6.20985
-8.6722 -4.73555 4.94871
-8.85785 -4.3712 4.383
-9.33428 -3.43615 6.41404
-9.12911 -3.83883 7.24074
-9.02125 -4.0505 4.75176
-8.60561 -4.86625 6.51094
-9.35922 -3.38719 5.54577
-9.06217 -3.9702 6.96707
-9.24635 -3.60873 6.67932
-9.3133 -3.47733 5.24004
-9.09104 -3.91353 3.80665
-9.50441 -3.10224 3.27278
-8.70209 -4.67688 6.86301
-8.49552 -5.08232 5.47174
-9.44152 -3.22568 4.26811
-9.11827 -3.86009 4.18917
-9.41107 -3.28543 2.60045
-9.4003 -3.30659 6.18864
-9.43242 -3.24354 6.94825
-9.42511 -3.25789 5.90166
-8.7875 -4.50926 4.14597
-8.4793 -5.11414 5.90988
-8.46388 -5.14441 6.52565
-9.24796 -3.60555 3.4924
-9.05153 -3.99108 6.17637
-9.37503 -3.35618 2.88206
-9.2778 -3.54699 1.5429
-9.15474 -3.78851 1.52474
-9.25272 -3.59623 0.5997
-8.25421 -5.5559 5.41914
-8.2147 -5.63345 2.02122
-8.09462 -5.86913 1.99971
-8.48084 -5.11111 0.68387
-8.21378 -5.63526 4.22546
-8.47344 -5.12565 1.53768
-8.62136 -4.83534 0.593854
-8.46428 -5.14361 3.67377
-8.45045 -5.17076 4.39664
-8.41666 -5.23707 0.356311
-8.64077 -4.79723 0.952116
-8.14924 -5.76191 0.300734
-8.2816 -5.50214 1.42374
-8.60565 -4.86616 3.08101
-8.49843 -5.0766 2.95193
-8.53876 -4.99744 2.67887
-8.29373 -5.47834 0.167614
-8.57515 -4.92602 1.39828
-8.17656 -5.7083 6.34064
-9.14714 -3.80343 1.24568
-8.57544 -4.92546 2.14212
-8.25701 -5.55042 3.56444
-9.04694 -4.00009 0.986628
-8.15198 -5.75654 3.44309
-8.52466 -5.02512 1.15717
-8.53453 -5.00575 0.275176
-8.63275 -4.81298 3.98031
-9.22701 -3.64669 1.03336
-8.95196 -4.18649 0.151431
-8.67945 -4.72133 2.32136
-8.40971 -5.25072 1.32281
-8.1521 -5.75631 4.64831
-8.84264 -4.40106 1.1142
-8.36149 -5.34535 1.82583
-8.11383 -5.83142 0.647481
-8.85144 -4.38378 0.656203
-8.11211 -5.83479 3.14517
-8.86373 -4.35965 1.80798
-8.37312 -5.32254 5.31762
-8.92201 -4.24528 1.37619
-9.00498 -4.08244 0.729142
-8.54189 -4.99131 4.20402
-8.74633 -4.59006 3.86963
-8.09974 -5.85906 0.0131481
-8.28245 -5.50048 4.72745
-8.88165 -4.32448 2.18332
-8.88782 -4.31238 2.81605
-8.12976 -5.80016 7.04129
-9.05616 -3.982 2.00539
-8.69098 -4.6987 1.61069
-8.61189 -4.85391 0.0321033
-8.31685 -5.43296 6.24511
-9.36226 -3.38123 0.154281
-8.25731 -5.54981 2.80111
-8.76377 -4.55584 3.30176
-8.1431 -5.77398 5.77514
-8.18904 -5.68382 0.894098
-9.33605 -3.43268 0.849285
-8.25047 -5.56325 5.68799
-8.1921 -5.6778 2.59724
-8.41855 -5.23337 2.61815
-8.14303 -5.77411 6.72662
-8.32762 -5.41183 0.764872
-8.72913 -4.62382 1.97924
-8.40905 -5.25201 3.32736
-8.80561 -4.47373 3.55419
-8.72044 -4.64089 2.60719
-8.36598 -5.33654 4.93052
-8.27691 -5.51136 4.43733
-9.27946 -3.54374 0.350073
-8.37215 -5.32443 2.93164
-8.2744 -5.51628 5.98349
-9.21153 -3.67706 0.0162638
-8.19485 -5.67242 5.0955
-8.7527 -4.57756 1.34346
-9.1608 -3.77663 0.793404
-8.47987 -5.11302 1.92417
-8.1179 -5.82342 1.59394
-8.72962 -4.62287 3.02918
-8.46853 -5.13529 2.33557
-8.76732 -4.54887 0.205734
-9.05062 -3.99287 1.38316
-8.23971 -5.58437 3.96132
-8.41855 -5.23337 4.68844
-8.33385 -5.3996 2.39938
-8.40621 -5.25759 3.95307
-8.5973 -4.88255 3.49924
-8.21395 -5.63491 1.74506
-9.06122 -3.97205 1.69766
-8.22087 -5.62135 2.30477
-8.63174 -4.81495 4.38025
-9.07702 -3.94105 0.04399
-8.57339 -4.92948 4.81824
-8.5751 -4.92613 1.73318
-8.47358 -5.12536 5.1078
-8.24439 -5.57517 3.0896
-8.22113 -5.62084 1.15251
-9.06634 -3.96201 0.399579
-6.98209 -6.98593 7.08313
-7.12299 -6.84503 5.096
-6.09546 -7.87257 7.14808
-7.75002 -6.218 4.84498
-8.06912 -5.8989 3.82695
-7.93141 -6.03661 5.43844
-7.63979 -6.32823 4.49938
-6.9524 -7.01562 4.36614
-7.91941 -6.04862 1.28199
-8.07259 -5.89543 6.09168
-6.31841 -7.64962 7.20206
-7.168 -6.80002 4.68193
-8.06761 -5.90041 5.22833
-7.27051 -6.69751 6.08326
-6.09823 -7.8698 7.4994
-7.78271 -6.18532 1.96815
-7.40689 -6.56113 6.56469
-7.96511 -6.00292 0.450971
-7.32868 -6.63934 5.33889
-6.79154 -7.17648 5.20385
-7.3836 -6.58442 3.97341
-7.11585 -6.85217 4.15886
-7.22964 -6.73839 6.35777
-6.94412 -7.0239 6.78754
-6.91829 -7.04974 4.05573
-7.5206 -6.44743 2.71333
-7.68052 -6.2875 3.7119
-6.9191 -7.04893 6.15725
-6.67119 -7.29683 7.39481
-7.06219 -6.90584 6.55807
-7.50945 -6.45857 4.95659
-7.16612 -6.8019 5.8731
-7.86828 -6.09975 5.8415
-6.94874 -7.01929 5.89786
-6.66458 -7.30344 6.15645
-7.9484 -6.01962 1.5783
-7.94508 -6.02294 6.52827
-7.65946 -6.30856 2.19997
-7.52317 -6.44486 7.33975
-8.07132 -5.8967 7.3699
-7.75359 -6.21443 1.44472
-7.1023 -6.86572 3.81354
-6.71922 -7.2488 5.60371
-6.26529 -7.70274 6.88013
-7.47844 -6.48958 6.28568
-7.42847 -6.53955 4.54545
-8.04398 -5.92404 2.54194
-6.84146 -7.12657 4.69774
-8.04946 -5.91857 1.04288
-7.92102 -6.04701 3.26752
-7.6281 -6.33992 4.10424
-7.99848 -5.96954 3.51744
-6.48139 -7.48664 6.9755
-6.75758 -7.21044 5.85925
-7.72708 -6.24094 7.32128
-5.93883 -8.02919 7.29747
-7.13202 -6.836 6.89213
-7.44655 -6.52148 4.25151
-7.06441 -6.90361 3.56449
-7.98516 -5.98286 4.94315
-6.8833 -7.08472 7.35367
-7.82498 -6.14304 3.98768
-7.47171 -6.49632 5.71417
-7.75755 -6.21047 7.0111
-7.52803 -6.43999 2.40319
-6.72077 -7.24725 6.74051
-7.90835 -6.05967 4.35312
-7.58263 -6.3854 3.05102
-7.93176 -6.03626 2.12685
-6.86666 -7.10136 6.47221
-7.25337 -6.71466 3.34517
-7.94908 -6.01894 6.98722
-7.15475 -6.81327 7.19009
-7.69494 -6.27308 3.29854
-7.33186 -6.63616 7.39224
-6.25443 -7.71359 6.53128
-6.95311 -7.01491 5.55524
-7.73645 -6.23158 2.71257
-6.7674 -7.20063 7.02539
-6.5478 -7.42022 5.90229
-7.98673 -5.98129 2.81283
-6.55077 -7.41725 6.59259
-7.19739 -6.77064 5.59111
-7.59234 -6.37568 6.69513
-7.6593 -6.30872 6.37133
-7.37161 -6.59641 3.65508
-7.60543 -6.36259 6.02612
-7.51322 -6.45481 5.45119
-7.7153 -6.25273 5.53117
-7.39995 -6.56807 2.96127
-6.44909 -7.51893 6.11815
-7.79421 -6.17381 5.16497
-7.42367 -6.54435 6.95221
-6.02762 -7.9404 2.83995
-5.88963 -8.07839 4.40447
-6.8944 -7.07363 0.499745
-6.61648 -7.35154 2.90692
-7.18539 -6.78263 0.229666
-5.96669 -8.00134 4.67107
-7.42273 -6.54529 0.15839
-5.9527 -8.01532 5.54282
-7.75737 -6.21065 0.897715
-6.15132 -7.8167 5.64226
-6.73214 -7.23588 4.25837
-5.94979 -8.01823 5.23562
-6.995 -6.97303 2.78931
-6.81591 -7.15211 3.74795
-6.7031 -7.26492 1.00307
-6.52661 -7.44141 1.10152
-6.48138 -7.48664 1.67498
-6.54644 -7.42158 3.67693
-6.80877 -7.15925 0.04676
-6.3155 -7.65252 3.29051
-6.37284 -7.59518 5.29753
-7.20636 -6.76166 2.79801
-6.05325 -7.91477 1.42862
-6.14265 -7.82537 0.39238
-6.36868 -7.59935 4.54792
-5.94076 -8.02726 1.17299
-7.91332 -6.0547 0.177525
-5.93121 -8.03681 6.9573
-6.17336 -7.79466 4.47271
-6.23612 -7.7319 5.87937
-5.88401 -8.08401 1.61443
-7.46437 -6.50365 1.23282
-7.0689 -6.89912 2.53675
-7.60652 -6.3615 0.31718
-5.92232 -8.0457 2.40502
-6.13336 -7.83466 2.45148
-6.13304 -7.83498 5.30225
-6.14662 -7.82141 4.72974
-6.07328 -7.89475 3.95867
-6.48575 -7.48227 2.12469
-6.13078 -7.83725 5.01691
-6.01627 -7.95175 0.038886
-6.04328 -7.92474 4.21919
-7.5808 -6.38722 0.845892
-6.3373 -7.63072 2.33624
-6.33731 -7.63071 0.820322
-7.65812 -6.3099 1.18161
-7.37518 -6.59284 1.91691
-6.40916 -7.55886 5.57452
-6.34874 -7.61928 0.126949
-6.68789 -7.28013 1.69989
-6.28767 -7.68035 1.0679
-6.85087 -7.11715 2.20481
-6.54482 -7.4232 5.20769
-7.00521 -6.96282 0.156574
-6.5505 -7.41753 4.46908
-6.77968 -7.18834 3.31094
-7.44511 -6.52291 1.60745
-6.24348 -7.72454 1.34051
-7.13322 -6.8348 1.6671
-6.70433 -7.2637 0.443256
-7.26126 -6.70676 1.38878
-6.36054 -7.60749 2.82278
-6.93489 -7.03313 1.92847
-6.24205 -7.72598 3.75374
-7.25515 -6.71287 2.38979
-6.1533 -7.81472 3.04411
-6.0959 -7.87212 0.646781
-5.87902 -8.089 0.657365
-6.5938 -7.37422 0.0469526
-6.75343 -7.21459 0.718764
-5.98808 -7.97994 6.22722
-6.99769 -6.97034 0.788312
-7.27771 -6.69031 0.46704
-6.43067 -7.53735 1.33967
-5.96313 -8.0049 3.60112
-6.53439 -7.43364 4.16053
-6.69177 -7.27625 2.31334
-6.54471 -7.42332 0.74832
-5.92128 -8.04675 6.64855
-6.42189 -7.54614 4.92568
-7.6904 -6.27762 0.606906
-6.71354 -7.25448 1.97289
-6.10272 -7.86531 1.88223
-7.1225 -6.84552 2.07129
-6.52489 -7.44313 2.67273
-6.09922 -7.86881 3.28344
-7.40738 -6.56064 0.964667
-6.2855 -7.68253 1.74444
-6.82253 -7.1455 2.60945
-7.01242 -6.9556 1.1602
-6.48044 -7.48758 0.501575
-7.22728 -6.74074 0.738333
-7.21721 -6.75081 1.07262
-6.81913 -7.14889 3.00039
-6.99024 -6.97778 1.43261
-3.96155 -9.06657 6.94851
-5.26074 -8.4046 1.95888
-3.6873 -9.20631 5.9661
-4.1041 -8.99394 7.40294
-4.64633 -8.71766 3.70518
-5.05102 -8.51146 5.23139
-5.42852 -8.31912 5.36164
-4.4393 -8.82315 3.995
-4.88901 -8.59401 2.81577
-5.7015 -8.18002 6.1262
-4.3541 -8.86656 6.04115
-4.75021 -8.66473 5.45652
-5.14081 -8.46571 2.43404
-4.31985 -8.88401 5.00265
-4.27505 -8.90684 5.50081
-5.6102 -8.22655 3.25221
-5.31726 -8.3758 1.65073
-5.26881 -8.40049 6.08434
-5.73209 -8.16444 7.13267
-5.60742 -8.22796 1.57571
-4.80979 -8.63438 6.93314
-5.16484 -8.45347 4.91044
-4.78883 -8.64505 6.58004
-5.59804 -8.23274 0.755093
-5.73698 -8.16195 3.48997
-5.62292 -8.22006 2.6888
-5.35833 -8.35488 2.98735
-4.45692 -8.81417 4.6655
-4.24516 -8.92207 6.81044
-3.4998 -9.30185 6.47289
-4.93565 -8.57025 5.63271
-4.88434 -8.59639 4.96819
-5.09854 -8.48725 7.4544
-4.18068 -8.95492 7.07697
-4.38405 -8.8513 5.26333
-5.83512 -8.11194 4.09166
-3.77561 -9.16131 6.45169
-5.13582 -8.46826 3.76314
-5.81875 -8.12028 1.92301
-5.79174 -8.13405 5.85376
-4.50162 -8.79139 4.24425
-5.39592 -8.33573 4.587
-3.6085 -9.24646 7.00499
-5.38837 -8.33958 7.20282
-5.41055 -8.32827 6.60033
-4.54669 -8.76843 7.46154
-3.95389 -9.07048 6.05815
-5.07093 -8.50132 7.19744
-4.82546 -8.62639 3.1007
-5.70101 -8.18028 5.13629
-5.20416 -8.43343 2.75741
-5.59879 -8.23236 4.22451
-5.19086 -8.44021 5.57532
-5.07897 -8.49722 4.64104
-5.73783 -8.16151 5.39099
-5.56126 -8.25148 1.96611
-3.42788 -9.33849 6.82002
-3.80532 -9.14618 7.14871
-5.55816 -8.25306 2.27757
-4.13142 -8.98002 6.38161
-5.01893 -8.52782 5.86844
-4.59283 -8.74492 6.19688
-4.52417 -8.77991 7.17419
-4.91392 -8.58132 3.61416
-4.86218 -8.60768 4.0564
-4.69782 -8.69143 4.80084
-5.07527 -8.49911 6.87923
-3.76714 -9.16563 6.71798
-5.43065 -8.31803 5.6732
-4.69734 -8.69167 4.47425
-5.65212 -8.20519 6.68925
-5.75209 -8.15425 4.85455
-5.67863 -8.19168 4.61966
-4.63314 -8.72438 5.94353
-4.76656 -8.6564 7.19476
-5.56287 -8.25066 3.9093
-3.60059 -9.2505 7.33989
-4.37832 -8.85422 6.33234
-5.09178 -8.49069 3.35161
-5.22265 -8.42401 6.44195
-5.74139 -8.1597 1.06346
-5.4138 -8.32662 5.10691
-5.53884 -8.2629 3.60592
-5.32065 -8.37408 4.08647
-5.80644 -8.12655 3.0479
-4.92794 -8.57418 4.32074
-5.36948 -8.3492 6.85893
-4.51105 -8.78659 5.62981
-3.33031 -9.38821 7.34422
-4.97506 -8.55017 6.37684
-3.99629 -9.04887 5.76363
-5.10031 -8.48635 3.07781
-5.72239 -8.16938 1.32654
-5.43098 -8.31786 6.28328
-5.26968 -8.40005 3.50303
-5.29773 -8.38576 1.35754
-4.57448 -8.75427 3.45888
-4.38492 -8.85086 2.65773
-4.0936 -8.99929 3.56222
-3.21314 -9.44791 1.54484
-4.4281 -8.82885 0.784787
-4.18993 -8.95021 4.28612
-4.26661 -8.91114 1.09013
-3.10171 -9.50469 5.48028
-4.24919 -8.92002 3.1101
-4.89721 -8.58983 1.37083
-3.72313 -9.18806 4.76656
-3.35407 -9.3761 4.28729
-5.09574 -8.48868 1.01208
-3.88395 -9.10611 4.99129
-3.41996 -9.34253 3.32398
-3.35486 -9.3757 0.292999
-5.1136 -8.47958 0.655091
-3.42023 -9.34239 2.24166
-3.80133 -9.14821 2.15383
-5.47909 -8.29335 0.977144
-4.38403 -8.85131 1.88852
-3.11775 -9.49651 0.451809
-4.73222 -8.6739 1.82237
-4.58598 -8.74841 1.23126
-3.56394 -9.26917 1.15486
-3.37669 -9.36458 2.66546
-4.03849 -9.02737 1.3825
-4.37544 -8.85569 3.69418
-3.58383 -9.25903 3.68243
-3.63059 -9.23521 1.87619
-3.21303 -9.44796 5.97681
-4.00535 -9.04426 4.76923
-3.4489 -9.32779 2.98172
-4.33421 -8.8767 2.34326
-4.166 -8.9624 0.833426
-4.35638 -8.8654 3.34172
-3.55195 -9.27527 4.46101
-3.09885 -9.50614 7.17117
-4.29846 -8.89491 0.383055
-3.58146 -9.26024 4.98576
-3.77712 -9.16055 0.250372
-4.82152 -8.6284 2.15338
-3.42435 -9.34029 0.942273
-5.00231 -8.53628 1.93439
-5.45544 -8.3054 0.54204
-3.15172 -9.4792 2.23369
-4.07214 -9.01023 2.8773
-4.08308 -9.00465 2.61354
-3.61906 -9.24108 2.48471
-4.80218 -8.63825 0.997583
-3.89792 -9.09899 1.6427
-4.48309 -8.80084 2.96178
-4.76706 -8.65615 2.39865
-3.39339 -9.35607 5.3128
-4.73953 -8.67018 0.213824
-5.02512 -8.52466 1.67506
-3.52053 -9.29128 6.18251
-3.21664 -9.44613 6.66755
-3.1708 -9.46948 0.0937831
-4.70731 -8.68659 1.52512
-3.82694 -9.13516 1.26182
-3.12569 -9.49247 3.88039
-4.84086 -8.61855 0.476928
-3.34095 -9.38278 4.93234
-5.21868 -8.42604 0.180929
-3.91045 -9.09261 5.29205
-4.20626 -8.94189 2.11796
-4.98242 -8.54641 0.26032
-3.15136 -9.47939 0.910544
-3.65139 -9.22461 5.47282
-3.28109 -9.41329 5.7097
-3.29943 -9.40394 1.18107
-3.16055 -9.4747 6.23465
-3.87694 -9.10969 3.38661
-4.64623 -8.71771 2.6941
-3.85826 -9.1192 2.45483
-3.20789 -9.45058 3.06196
-4.30749 -8.89031 1.41097
-3.26609 -9.42093 1.80208
-4.54788 -8.76783 0.413386
-3.34856 -9.37891 4.0258
-3.84001 -9.1285 3.77867
-3.3598 -9.37318 4.67236
-3.4937 -9.30495 1.62601
-5.68704 -8.18739 0.22511
-3.81592 -9.14078 4.27871
-4.14125 -8.97501 3.83311
-3.49933 -9.30209 0.522811
-3.91591 -9.08983 0.996263
-3.99922 -9.04738 0.278875
-3.49113 -9.30626 5.80024
-3.87724 -9.10953 3.12183
-3.74499 -9.17692 0.55914
-3.94629 -9.07435 0.729467
-3.68023 -9.20991 4.06429
-4.60817 -8.7371 3.18535
-2.12685 -9.66314 3.92177
-1.19841 -9.81019 6.71188
-2.08436 -9.66987 4.82643
-1.90819 -9.69777 6.8055
-1.62075 -9.7433 4.83752
-0.613554 -9.90282 6.23008
-2.52446 -9.60017 5.36167
-0.80166 -9.87303 7.0193
-0.322034 -9.94899 6.92359
-2.28968 -9.63735 6.99706
-2.15018 -9.65944 4.19052
-2.04591 -9.67596 2.74411
-1.3234 -9.79039 5.41332
-2.59497 -9.589 2.15484
-3.06262 -9.51493 4.2952
-2.30818 -9.63442 2.68073
-2.58727 -9.59022 6.59496
-1.96485 -9.6888 6.47377
-2.08661 -9.66951 3.66547
-1.25955 -9.80051 5.98577
-2.86017 -9.54699 2.62625
-1.15655 -9.81682 5.72081
-0.607649 -9.90376 7.26343
-2.86426 -9.54635 6.08436
-1.63772 -9.74061 6.54503
-2.08668 -9.6695 4.50363
-3.08008 -9.51216 3.54443
-2.48297 -9.60674 3.09295
-2.39871 -9.62008 3.63239
-1.23031 -9.80514 4.68734
-2.29762 -9.63609 5.03548
-2.84145 -9.54996 7.27004
-1.93285 -9.69387 7.28616
-2.31692 -9.63304 5.84308
-2.80772 -9.5553 3.2936
-1.65564 -9.73777 3.96768
-1.43564 -9.77262 6.29128
-1.30321 -9.79359 4.39328
-2.08339 -9.67002 3.34528
-2.01951 -9.68014 5.5915
-3.01809 -9.52198 1.33841
-1.59713 -9.74704 5.41067
-2.86457 -9.5463 6.84754
-1.71983 -9.72761 6.00153
-2.51861 -9.60109 4.51551
-2.58594 -9.59043 2.81453
-2.19547 -9.65227 3.08751
-2.48312 -9.60671 3.34156
-2.75936 -9.56296 5.00359
-2.59585 -9.58886 4.0363
-0.595113 -9.90574 6.81293
-1.03476 -9.83611 6.09275
-2.40355 -9.61931 4.22724
-2.27712 -9.63934 6.53373
-2.56751 -9.59335 5.64274
-2.26556 -9.64117 2.11407
-2.79776 -9.55688 5.35273
-2.64484 -9.5811 1.82125
-1.50105 -9.76226 5.76036
-2.94381 -9.53375 1.59251
-0.852708 -9.86494 6.58777
-1.90427 -9.69839 5.35718
-1.65908 -9.73723 4.52347
-2.67754 -9.57592 4.30026
-2.73588 -9.56668 3.81487
-1.42143 -9.77487 7.37857
-2.9086 -9.53932 0.998592
-0.520668 -9.91753 6.53453
-2.91886 -9.5377 6.54365
-2.305 -9.63492 5.4936
-1.97228 -9.68762 6.10482
-1.1752 -9.81387 6.3963
-2.71322 -9.57027 1.24871
-1.77256 -9.71925 7.08241
-2.35625 -9.62681 4.73127
-2.99927 -9.52496 4.86662
-2.94333 -9.53382 5.78393
-2.75296 -9.56397 4.6468
-2.28764 -9.63767 6.16482
-2.94176 -9.53407 4.07235
-2.58741 -9.59019 2.55723
-1.88471 -9.70149 5.03002
-1.11004 -9.82419 7.02725
-1.87739 -9.70265 4.13512
-0.443463 -9.92976 7.46168
-1.20359 -9.80937 5.18037
-0.32912 -9.94787 7.19994
