ply
format ascii 1.0
comment Created by Open3D
element vertex 1816
property double x
property double y
property double z
end_header
9.01994 -4.17802 0.471321
8.91152 -4.51362 0.111026
8.89482 -4.31483 1.27735
8.91136 -4.44254 0.459679
8.95629 -4.29345 0.65771
9.10043 -3.91825 0.790545
9.18794 -3.61327 1.24761
8.98538 -4.18158 0.860851
9.15476 -3.75248 0.959312
9.04863 -4.06463 0.686508
9.17372 -3.59707 1.49411
8.98859 -4.04468 1.49076
9.09302 -3.78971 1.50473
9.28977 -3.36998 1.23522
9.21306 -3.59355 1.04796
9.09035 -3.86635 1.16232
9.00465 -4.07892 1.13467
8.87003 -4.41305 1.09012
9.27531 -3.6364 0.105976
9.29174 -3.40136 1.05888
9.10473 -4.01491 0.268352
9.30417 -3.52521 0.308528
9.2287 -3.70734 0.30884
9.31534 -3.41107 0.733671
9.41942 -3.25356 0.276398
9.24765 -3.60261 0.596516
9.43489 -3.12481 0.722186
9.35125 -3.29648 0.869769
9.39488 -3.27011 0.484543
9.37766 -3.18215 1.11636
9.32637 -3.43167 0.503347
9.13961 -3.8929 0.452788
9.22875 -3.60851 0.790251
9.3896 -3.37984 0.0115232
9.17248 -3.88109 0.123423
9.46093 -2.98904 0.9161
9.55006 -2.58224 1.02177
9.52303 -3.00305 0.104706
9.61191 -2.38817 0.832751
9.6047 -2.2245 1.40907
9.57192 -2.39653 1.3035
9.65474 -2.08982 1.18961
9.60284 -2.36486 1.01455
9.56324 -2.65321 0.647363
9.52242 -2.74353 0.884451
9.49395 -3.00418 0.46173
9.50095 -2.76548 1.08525
9.43548 -2.95012 1.34731
9.655 -2.15125 1.00358
9.64637 -2.00985 1.53128
9.53534 -2.811 0.523532
9.69162 -1.85654 1.42667
9.49401 -2.68306 1.41644
9.74145 -2.02239 0.315674
9.81762 -1.66749 0.427594
9.66588 -2.35464 0.263562
9.70845 -2.26044 0.0162787
9.72496 -1.88213 0.937303
9.76894 -1.82064 0.575137
9.63741 -2.51526 0.138578
9.70907 -1.8534 1.21977
9.7732 -1.98827 0.0236483
9.78763 -1.55518 1.13343
9.79735 -1.66511 0.68592
9.84374 -1.62994 0.215566
9.79836 -1.81446 0.229013
9.69039 -2.06018 0.836023
9.68305 -2.21771 0.458165
9.73044 -1.9935 0.538086
9.74753 -1.66387 1.307
9.59481 -2.65636 0.246732
9.66591 -2.20378 0.712082
9.62953 -2.38849 0.613375
9.82889 -1.21339 0.960784
9.86768 -0.618496 1.06284
9.85303 -0.397339 1.47013
9.86171 -0.819595 0.937536
9.80668 -0.988289 1.46807
9.81331 -1.09793 1.27422
9.83459 -0.669675 1.43212
9.85601 -1.12465 0.704944
9.79224 -1.34519 1.29471
9.81378 -0.821588 1.54457
9.8143 -1.54128 0.818264
9.83913 -0.907752 1.13632
9.84385 -1.39392 0.590163
9.81523 -1.39108 0.956699
9.87548 -1.22793 0.354235
9.87338 -1.45989 0.148913
9.90163 -1.14458 0.105341
9.8874 -0.611085 0.819687
9.92997 -0.327146 0.562627
9.92859 -0.612722 0.29464
9.90949 -0.479301 0.67076
9.88633 -1.03124 0.413109
9.94325 -0.424904 0.29613
9.90721 -0.0401631 1.13883
9.91578 -0.837856 0.232225
9.95356 -0.0537658 0.536361
9.95173 -0.201327 0.41204
9.92714 -0.202123 0.723611
9.87908 -0.825653 0.710742
9.91063 -0.229546 0.906062
9.90107 -0.406962 0.850047
9.90163 -0.794509 0.455435
9.96334 -0.437317 0.0284558
9.88361 -0.373899 1.10498
9.88158 -0.153521 1.3512
9.90742 0.861489 -0.314843
9.94372 0.207265 -0.507847
9.88038 0.577349 -0.942574
9.91857 0.62856 -0.406109
9.88757 0.101698 -1.32681
9.93184 0.642948 -0.22308
9.98929 0.118303 -0.0178155
9.88322 0.849633 -0.634239
9.95796 0.24192 -0.292225
9.93105 0.795752 -0.080323
9.91533 0.0187178 -1.0571
9.8986 0.655289 -0.63316
9.94382 0.427447 -0.286419
9.88885 1.07599 -0.336344
9.90012 0.260659 -1.00838
9.90976 1.00388 -0.142786
9.97073 0.369362 -0.00260554
9.92194 0.384229 -0.607679
9.90352 0.393275 -0.832661
9.87841 1.39625 -0.148684
9.92578 0.165086 -0.777941
9.95121 0.00624909 -0.61374
9.80633 1.43645 -1.02432
9.86804 0.187177 -1.48949
9.85642 0.76837 -1.05601
9.81102 1.53001 -0.871181
9.76913 1.38566 -1.54777
9.83042 1.00562 -1.14913
9.81404 1.22951 -1.13336
9.83333 1.23401 -0.883671
9.79136 1.21144 -1.43963
9.8436 1.27606 -0.711162
9.86652 1.18094 -0.515123
9.85702 0.916788 -0.899943
9.86884 0.441352 -1.22514
9.86081 0.370702 -1.3979
9.87416 1.25988 -0.339067
9.83118 1.48207 -0.663052
9.84589 0.661689 -1.29647
9.77936 1.49091 -1.31263
9.56852 2.75549 -0.277594
9.68245 2.10339 -0.805807
9.72122 1.99869 -0.636799
9.76381 1.63598 -1.18818
9.73804 1.99141 -0.450021
9.73022 1.8694 -0.910022
9.78584 1.85806 -0.254404
9.69493 2.16573 -0.465619
9.74813 2.03524 -0.194603
9.69515 2.29351 -0.0826818
9.79093 1.91568 -0.0198917
9.70101 2.20741 -0.266297
9.84983 1.63019 -0.139381
9.80567 1.66937 -0.570068
9.62271 2.56103 -0.184592
9.73956 1.66261 -1.40946
9.83489 1.6057 -0.397402
9.58048 2.77015 -0.0857608
9.72979 1.81131 -1.08812
9.74101 2.12216 -0.0242451
9.66652 2.22264 -0.648454
9.64914 2.3648 -0.440825
9.68702 2.00444 -1.04352
9.4496 2.8387 -1.50383
9.63746 2.15484 -1.21037
9.55278 2.51939 -1.17508
9.52541 2.93007 -0.292405
9.51429 2.56244 -1.52399
9.57097 2.68096 -0.468954
9.49337 2.96523 -0.584878
9.47994 2.79018 -1.27216
9.69205 1.84985 -1.44119
9.43353 2.97471 -1.29825
9.46474 3.00235 -0.829159
9.61101 2.41403 -0.766911
9.57175 2.35899 -1.41719
9.67995 1.97204 -1.22765
9.52581 2.67937 -1.03329
9.61424 2.32128 -1.0029
9.5733 2.5058 -0.961159
9.53298 2.73323 -0.784261
9.47822 2.85547 -1.09919
9.31701 3.4183 -0.678738
9.32994 3.2838 -1.18253
9.40979 3.31247 -0.102435
8.97956 4.34032 -0.155224
9.42081 3.16226 -0.705244
9.15344 3.94294 -0.0459007
9.32855 3.4895 -0.195547
9.29777 3.39715 -1.00841
9.12882 3.93722 -0.363702
9.2351 3.59753 -0.768975
9.09352 4.05064 -0.226153
9.44736 3.13965 -0.502924
9.27792 3.54268 -0.532327
9.47603 3.13833 -0.171837
9.16025 3.82167 -0.557105
9.20242 3.79241 -0.203299
9.41699 3.08178 -1.14282
9.35996 3.38254 -0.347433
9.1345 3.77422 -1.09181
8.83572 4.41301 -1.49432
8.86651 4.50691 -0.673779
8.97388 4.13001 -1.24784
9.10955 3.76502 -1.43043
8.90617 4.3353 -1.04382
9.16805 3.73826 -0.872236
9.2296 3.48991 -1.35879
9.0068 4.14766 -0.774117
9.0172 3.969 -1.52308
8.94168 4.39185 -0.349922
9.32376 3.26046 -1.36914
8.82325 4.48033 -1.31291
9.02103 4.15566 -0.567502
9.0464 4.00653 -0.996182
8.90098 4.53199 -0.145578
9.1989 3.61044 -1.13233
9.07267 3.98214 -0.805813
8.89962 4.30558 -1.26588
8.94999 4.32333 -0.586242
8.76022 4.70282 -0.543501
8.64056 4.88899 -0.604106
8.64253 4.80485 -1.14301
8.67874 4.80353 -0.758307
8.51174 5.18526 -0.0309447
8.75134 4.6326 -1.10764
8.68054 4.88671 -0.184773
8.47768 5.17815 -0.44843
8.60798 4.97151 -0.408633
8.86057 4.55368 -0.446206
8.46443 5.22595 -0.274077
8.61692 5.01813 -0.000963244
8.80638 4.6786 -0.203203
8.29422 5.52426 -0.137318
8.73881 4.68552 -0.891335
8.32919 5.41432 -0.489381
8.71537 4.80065 -0.379436
8.57721 4.93093 -1.01317
8.83456 4.52106 -0.946042
8.20898 5.57884 -0.700156
8.18452 5.51034 -1.42211
8.21718 5.59315 -0.515758
8.20205 5.56043 -0.898083
8.10756 5.69741 -1.01268
8.47925 5.11163 -0.874352
8.72363 4.62633 -1.4505
8.08946 5.65084 -1.51955
8.40761 5.25026 -0.729698
8.61433 4.79026 -1.54658
8.56197 4.91302 -1.29808
8.13857 5.74338 -0.369463
8.03918 5.76564 -1.30143
8.36667 5.23033 -1.30738
8.38779 5.16819 -1.49169
8.4845 5.05997 -1.16141
8.11006 5.75465 -0.604317
8.29387 5.4238 -0.810059
8.37502 5.25433 -1.05681
8.50587 4.96851 -1.53823
8.24859 5.45534 -1.0921
7.98548 5.94367 -0.469767
7.68947 6.28325 -0.527785
7.78123 6.21889 -0.171149
7.6575 6.3524 -0.265285
7.91102 6.00038 -0.722017
7.39048 6.66955 -0.227927
7.85141 6.15606 -0.0110988
7.71029 6.20569 -0.967966
7.61951 6.41891 -0.0828984
8.01363 5.83899 -1.06347
8.01873 5.93759 -0.197916
7.59355 6.3615 -0.809715
7.85 6.04261 -0.963872
7.87331 6.06537 -0.549529
7.46062 6.53823 -0.63511
7.75112 6.13663 -1.14393
7.72031 6.22295 -0.728016
7.49449 6.55904 -0.134614
7.89211 6.07018 -0.327558
7.13178 6.99475 -0.0433834
7.4416 6.58462 -0.435523
7.28774 6.80417 -0.109316
7.45458 6.47625 -1.20671
7.49791 6.4042 -1.38316
7.65041 6.23108 -1.33821
7.59694 6.26982 -1.53571
7.07169 6.95169 -0.982161
7.31225 6.67039 -0.97913
7.19676 6.85541 -0.566911
7.86006 5.98303 -1.35957
7.37901 6.5411 -1.40227
7.44444 6.52239 -0.923109
7.19698 6.79154 -1.09343
7.29039 6.72048 -0.776358
7.17925 6.78767 -1.29739
7.15915 6.87805 -0.744104
7.23665 6.8423 -0.288816
7.32038 6.62991 -1.23542
7.32065 6.71189 -0.55418
7.12656 6.95748 -0.402367
6.99339 7.05981 -0.752131
6.31149 7.66739 -0.508078
6.52381 7.5161 -0.216757
6.12331 7.85477 -0.249611
6.66683 7.39679 -0.189322
6.95571 7.01701 -1.47875
6.79172 7.20488 -1.0154
6.89591 7.15986 -0.589314
6.74674 7.27649 -0.693776
6.92802 7.06506 -1.2423
6.58475 7.41737 -0.669201
6.81303 7.28195 -0.0920768
6.96187 7.1466 -0.171871
6.37889 7.66124 -0.00971724
6.98769 7.1011 -0.399139
6.46707 7.53255 -0.527054
6.51209 7.46025 -0.855147
6.68035 7.36645 -0.371442
6.39323 7.61454 -0.343669
6.25303 7.7531 -0.161219
6.84579 7.22594 -0.363736
6.57538 7.49055 -0.0375188
6.15015 7.853 -0.044631
6.29938 7.56954 -1.55665
6.13486 7.82094 -0.481927
6.66818 7.26968 -1.41
6.65002 7.30925 -1.17689
5.92028 8.03237 -0.209044
5.83204 7.99704 -1.28173
6.18547 7.75446 -0.707235
6.23187 7.64983 -1.33719
6.39656 7.5412 -1.0269
6.52854 7.39407 -1.3604
6.04349 7.79521 -1.48761
6.01661 7.89689 -0.724573
6.81021 7.14233 -1.46867
5.8896 8.02135 -0.569776
6.35841 7.55357 -1.22277
6.25538 7.67823 -0.86737
6.10056 7.79502 -1.01701
5.9742 7.90845 -0.963643
6.09401 7.77323 -1.28242
5.96392 7.89703 -1.15943
5.88944 7.92501 -1.50478
6.00731 7.94005 -0.383337
5.10418 8.50373 -0.657927
5.38901 8.30523 -0.918378
5.29662 8.41098 -0.384366
4.89268 8.67135 -0.24481
5.69475 8.10983 -1.0057
5.48437 8.28753 -0.475612
5.38449 8.38046 -0.130918
5.06179 8.57861 -0.126556
5.57833 8.21271 -0.662974
5.05312 8.56429 -0.339843
5.22003 8.47762 -0.170285
5.29659 8.38848 -0.629115
4.65853 8.83439 -0.0324251
5.73254 8.10781 -0.775998
5.73596 8.15806 -0.20718
5.72959 8.13501 -0.500128
5.54532 8.27535 -0.20214
5.10676 8.42964 -1.44595
4.56369 8.8575 -0.41284
5.67261 8.08547 -1.41788
5.21195 8.38621 -1.21739
4.78217 8.66422 -1.05834
4.89279 8.6381 -0.605434
5.42236 8.2648 -1.13557
4.56621 8.83798 -0.608184
4.5707 8.74847 -1.55104
4.61453 8.84231 -0.239334
5.53403 8.18327 -1.27788
4.62731 8.73112 -1.36263
5.04308 8.5244 -0.84028
4.99833 8.53271 -1.04794
5.52792 8.16652 -1.50063
5.21707 8.40301 -1.00075
4.64571 8.76485 -0.873563
5.30471 8.30358 -1.49772
4.73742 8.72497 -0.696126
4.86025 8.58671 -1.38068
3.62598 9.25882 -0.350996
3.26205 9.43935 -0.000256051
4.06449 9.10026 -0.0792361
4.37892 8.86383 -1.32962
4.235 8.94311 -1.09804
3.80624 9.20952 -0.0522334
4.00562 9.10546 -0.305108
3.4771 9.33828 -0.141509
4.49497 8.84111 -1.03113
3.99503 9.09262 -0.507935
4.0399 9.05807 -0.695975
4.1778 8.98703 -0.859872
3.61747 9.28938 -0.0326145
4.29263 8.99871 -0.162256
4.3294 8.94902 -0.567998
4.39866 8.89787 -0.832519
3.82411 9.16991 -0.431534
4.17684 9.02561 -0.410293
4.45471 8.93919 -0.0725045
3.39451 9.30331 -0.956035
3.37769 9.34937 -0.495707
3.99694 9.0445 -1.06534
4.08776 8.99066 -1.25638
3.59103 9.24787 -0.650373
3.1486 9.41048 -0.893571
3.27973 9.36851 -0.748187
3.32297 9.31047 -1.22076
3.11092 9.46388 -0.448544
3.84996 9.11824 -0.913887
3.14233 9.39404 -1.11772
3.59872 9.17848 -1.42991
3.26502 9.41391 -0.285362
4.07032 8.97973 -1.47006
3.54174 9.24944 -0.872377
3.32165 9.2944 -1.41638
3.58336 9.21407 -1.08578
3.81358 9.1019 -1.28372
3.13152 9.48051 -0.152252
2.79533 9.56142 -0.247046
2.36296 9.63859 -0.577024
2.8945 9.48525 -0.895923
2.50998 9.63628 -0.168222
2.88973 9.46371 -1.17709
2.93609 9.5105 -0.459202
2.68218 9.51443 -1.16608
1.84653 9.79892 -0.126592
2.57258 9.60679 -0.347423
2.81466 9.57537 -0.0165752
2.66279 9.53424 -0.978157
2.23054 9.6986 -0.227363
2.98435 9.51503 -0.259533
2.66667 9.55218 -0.744327
3.03626 9.4145 -1.3509
2.793 9.5347 -0.585089
2.61559 9.58121 -0.536531
2.17423 9.69577 -0.429917
1.95843 9.7593 -0.284756
2.97861 9.47824 -0.73253
2.39179 9.67767 -0.00696205
1.62926 9.81133 -0.619245
2.008 9.69744 -0.903854
1.83109 9.69899 -1.41102
2.17517 9.64502 -1.05618
2.01161 9.65575 -1.40978
1.64847 9.83741 -0.238948
1.76623 9.76955 -0.729549
1.82 9.73778 -0.963235
2.57744 9.52519 -1.3443
2.34216 9.5945 -1.18533
2.26811 9.63653 -0.884774
2.17329 9.62799 -1.27274
1.79299 9.7931 -0.358056
2.01766 9.71667 -0.636779
2.57325 9.50944 -1.55196
2.78991 9.46532 -1.45415
2.20386 9.60504 -1.4662
1.98121 9.68321 -1.15997
1.00359 9.85582 -0.828357
1.49807 9.76326 -1.51003
0.747523 9.91884 -0.283756
1.42131 9.78455 -1.31626
1.29911 9.86681 -0.393245
1.07692 9.86817 -0.598201
1.50206 9.85241 -0.373219
0.574056 9.90936 -0.577682
0.751721 9.88866 -0.663021
0.337265 9.96574 -0.0980844
1.51328 9.79151 -1.13583
1.02727 9.89187 -0.346651
1.01062 9.90865 -0.150035
1.01693 9.83971 -1.01979
1.34752 9.83467 -0.753212
0.162165 9.9871 -0.00178752
1.38458 9.87831 -0.161601
0.568707 9.927 -0.35887
0.528962 9.94535 -0.165375
1.49625 9.8096 -0.923035
1.28445 9.81398 -1.0791
0.368769 9.90772 -0.803749
1.16403 9.80319 -1.33669
0.321036 9.88869 -1.09326
0.394302 9.86859 -1.27546
0.756401 9.81873 -1.54688
0.924761 9.82938 -1.24317
0.549777 9.86826 -1.12418
0.189945 9.88586 -1.26031
0.205869 9.93285 -0.647376
0.250053 9.85803 -1.55387
0.157429 9.90962 -0.990928
0.100757 9.92821 -0.811393
0.0823939 9.8815 -1.42326
0.745923 9.83927 -1.29636
0.0638618 9.97672 -0.231887
0.787754 9.85351 -1.07356
1.03581 9.80249 -1.47382
0.662405 9.87797 -0.888121
0.251861 9.95271 -0.348985
0.0137699 9.94873 -0.637728
-0.808198 9.88987 -0.591167
-0.512508 9.93197 -0.351833
-0.304934 9.96002 -0.203062
-0.0829439 9.91781 -0.961316
-0.355372 9.92554 -0.590679
-0.253375 9.88135 -1.25419
-1.20267 9.89505 -0.130879
-0.111839 9.96369 -0.349573
-0.507224 9.95443 -0.0717695
-1.03022 9.8824 -0.464064
-0.901219 9.91437 -0.186824
-1.18024 9.88175 -0.322332
-0.272549 9.91522 -0.804651
-0.580952 9.89583 -0.742693
-0.529491 9.88596 -0.919505
-0.738496 9.91893 -0.291568
-0.363023 9.88961 -1.03962
-0.319697 9.9428 -0.407155
-0.825557 9.85621 -1.00143
-1.54457 9.78176 -1.22844
-0.140971 9.87578 -1.43735
-1.09377 9.81027 -1.31697
-1.16277 9.84499 -0.80685
-1.34839 9.78291 -1.41001
-0.407847 9.86065 -1.36277
-0.845533 9.8705 -0.799882
-0.898856 9.83156 -1.24135
-0.99417 9.87121 -0.642294
-0.660935 9.85268 -1.21099
-1.34601 9.84087 -0.675991
-1.17754 9.82409 -1.05754
-1.53982 9.83161 -0.599836
-1.3986 9.8218 -0.865697
-0.328729 9.85188 -1.55331
-1.31049 9.86184 -0.444941
-0.585378 9.83563 -1.50319
-1.9757 9.7368 -0.512179
-2.61765 9.59159 -0.401786
-1.91748 9.78698 -0.0634507
-2.97782 9.52852 -0.111739
-1.78502 9.7708 -0.65817
-2.03062 9.68753 -0.959416
-2.17051 9.69294 -0.476106
-2.77652 9.58149 -0.0541859
-1.71472 9.83491 -0.0728366
-2.52347 9.63329 -0.16524
-1.78055 9.73104 -1.16424
-1.78194 9.805 -0.243419
-2.1144 9.74176 -0.037982
-1.69335 9.80794 -0.470647
-1.89688 9.73015 -0.829116
-1.66733 9.77586 -0.945539
-2.18355 9.71009 -0.224701
-1.56569 9.86067 -0.196929
-1.96386 9.67293 -1.33891
-3.04908 9.4088 -1.38352
-2.54309 9.5901 -0.642063
-2.97625 9.48496 -0.656262
-2.58193 9.55072 -1.01452
-2.63247 9.49902 -1.50487
-2.86233 9.44652 -1.47162
-2.59798 9.56192 -0.827939
-2.90144 9.48432 -0.886807
-1.68268 9.72454 -1.53601
-2.47829 9.55085 -1.32136
-2.84021 9.54214 -0.352397
-2.66258 9.51219 -1.25211
-2.20538 9.60895 -1.41322
-2.41982 9.5961 -0.934545
-2.37561 9.56193 -1.48951
-2.85061 9.46737 -1.24811
-3.03495 9.48644 -0.463246
-2.23284 9.64167 -0.926019
-2.25127 9.6224 -1.11005
-2.33547 9.62973 -0.768724
-3.89904 9.12863 -0.552083
-3.85613 9.18652 -0.0797692
-3.47389 9.34747 -0.0489052
-3.30305 9.39069 -0.373293
-3.69979 9.24062 -0.205288
-3.59971 9.23972 -0.703999
-3.48755 9.29889 -0.55437
-3.68803 9.21867 -0.521062
-3.2195 9.41151 -0.535615
-3.44022 9.30011 -0.770834
-4.10187 9.09042 -0.0128152
-4.04084 9.09636 -0.24051
-3.2944 9.41226 -0.161379
-3.237 9.33975 -1.29528
-3.78588 9.16075 -0.72591
-3.57607 9.27998 -0.345247
-3.20386 9.37433 -1.04977
-3.66767 9.19625 -0.884446
-3.22479 9.39253 -0.733315
-3.08657 9.43864 -0.864559
-4.21116 9.03252 -0.161527
-3.825 9.17804 -0.331526
-4.12228 8.99081 -1.08621
-4.36755 8.88801 -1.10039
-4.36488 8.92987 -0.620507
-3.88629 9.06374 -1.3785
-4.11134 9.03622 -0.604834
-4.48817 8.91876 -0.149988
-4.21443 8.97607 -0.810255
-4.34897 8.95967 -0.347228
-4.35226 8.87333 -1.34775
-3.99419 9.07094 -0.767313
-4.40341 8.88806 -0.924892
-3.55761 9.22416 -1.09257
-3.55881 9.18625 -1.53308
-3.75669 9.12864 -1.24637
-4.20214 8.92199 -1.50709
-3.50921 9.22658 -1.30019
-4.06128 8.99889 -1.28862
-3.91891 9.07214 -1.12048
-5.05111 8.55198 -0.487016
-5.17499 8.45214 -0.747038
-5.31405 8.39634 -0.427362
-4.88918 8.64649 -0.538377
-5.69219 8.20076 -0.0346372
-4.82077 8.72879 -0.0995817
-4.60728 8.8428 -0.282326
-4.94433 8.59743 -0.704299
-5.44603 8.34724 -0.0820803
-4.79822 8.72145 -0.329468
-4.55583 8.80731 -1.0107
-4.72338 8.738 -0.648085
-5.02218 8.6137 -0.0089587
-5.20173 8.48246 -0.239477
-4.72896 8.68632 -1.17242
-4.97254 8.61715 -0.302043
-5.45665 8.32076 -0.299163
-4.80968 8.66747 -0.839798
-4.62365 8.73618 -1.33202
-4.60114 8.82427 -0.524525
-5.18518 8.38686 -1.38866
-5.01135 8.49767 -1.34206
-5.58367 8.19192 -0.853344
-5.37802 8.2679 -1.39716
-5.37945 8.28836 -1.1653
-5.69726 8.14899 -0.56343
-5.581 8.1427 -1.40603
-4.89327 8.5915 -1.10866
-5.79107 8.04139 -1.10808
-5.74612 8.15095 -0.216819
-5.795 8.07158 -0.753778
-5.07091 8.48995 -1.02924
-5.79839 8.01479 -1.34836
-4.79301 8.62629 -1.39832
-5.13151 8.43819 -1.18823
-5.48116 8.28541 -0.520016
-5.58647 8.16085 -1.17236
-4.56788 8.753 -1.5206
-5.2699 8.36981 -1.00972
-5.42885 8.28266 -0.898237
-6.58425 7.47185 -0.145426
-6.19882 7.71549 -0.974536
-6.1269 7.81692 -0.586689
-6.05102 7.8594 -0.803166
-5.92719 7.92367 -1.20522
-6.32824 7.61584 -0.869021
-6.50136 7.52396 -0.326481
-6.25321 7.76832 -0.0122862
-6.0551 7.83521 -1.00386
-6.99523 7.12632 -0.0922287
-6.38416 7.59388 -0.618894
-6.40329 7.62483 -0.160589
-6.81999 7.25672 -0.278997
-5.94747 8.00255 -0.272896
-6.09771 7.86089 -0.4022
-5.90712 8.0106 -0.528877
-6.24873 7.72973 -0.42335
-5.97891 7.99938 -0.0434118
-6.26198 7.63087 -1.27176
-6.55193 7.44261 -0.696281
-5.91002 7.90335 -1.54435
-7.00461 7.07752 -0.487591
-6.11605 7.74664 -1.35773
-6.39517 7.53398 -1.10826
-6.80857 7.19431 -0.97844
-6.80167 7.17803 -1.19334
-6.52804 7.39052 -1.39886
-6.84767 7.11207 -1.45181
-6.91821 7.13579 -0.637972
-6.7248 7.29567 -0.689529
-6.63191 7.31763 -1.24553
-7.0101 7.0258 -0.943331
-6.26079 7.60822 -1.50119
-6.65369 7.2708 -1.51908
-6.46898 7.49223 -0.901962
-7.08123 6.92381 -1.12043
-7.20247 6.79884 -0.979812
-7.51503 6.47003 -0.672375
-7.24502 6.83324 -0.282742
-7.35961 6.73002 -0.0265913
-7.49768 6.51933 -0.432489
-7.19767 6.84924 -0.609228
-7.73103 6.28528 -0.108209
-7.88778 6.08095 -0.280327
-7.60603 6.38423 -0.500552
-7.37608 6.65456 -0.491501
-7.22022 6.75468 -1.17341
-7.65146 6.35464 -0.305271
-7.9345 6.05624 -0.0321652
-7.52123 6.54132 -0.0221503
-7.13935 6.8288 -1.34359
-7.38548 6.66856 -0.284607
-7.03301 6.94068 -1.44815
-7.39913 6.5957 -0.7554
-7.12044 6.9788 -0.285278
-7.7735 6.07846 -1.40854
-7.99523 5.94514 -0.363097
-7.98377 5.82144 -1.49816
-7.84839 6.0483 -0.932388
-7.68799 6.19796 -1.24817
-7.5028 6.4609 -0.866391
-7.71895 6.2412 -0.590171
-8.07096 5.88124 -0.158161
-7.3754 6.56506 -1.23893
-7.62249 6.30128 -1.0277
-7.90595 5.948 -1.20483
-7.88084 6.04835 -0.617456
-7.80351 6.12117 -0.764168
-7.33599 6.58743 -1.43571
-8.00925 5.84894 -1.02361
-7.53381 6.38148 -1.22331
-7.62612 6.3308 -0.748092
-8.44514 5.19503 -0.689687
-8.26833 5.50273 -0.561955
-8.53804 5.08432 -0.417391
-8.17924 5.70692 -0.170413
-8.30408 5.47204 -0.377883
-8.15387 5.71261 -0.408163
-8.29239 5.39248 -1.03469
-8.76071 4.78146 -0.0144247
-8.20307 5.58373 -0.731826
-8.06194 5.80045 -0.822192
-8.71011 4.82643 -0.264943
-8.31431 5.39939 -0.750585
-8.0649 5.84115 -0.519063
-8.15086 5.60409 -1.16363
-8.43014 5.25052 -0.483194
-8.21505 5.53195 -0.94641
-8.38385 5.36509 -0.22327
-8.31325 5.50706 -0.0449348
-8.55985 5.0894 -0.14658
-8.51566 5.03841 -0.966351
-8.62658 4.90707 -0.635575
-8.089 5.66486 -1.4312
-8.54592 5.01901 -0.766713
-8.55733 4.88792 -1.51574
-8.48714 5.04398 -1.23916
-8.60466 4.85893 -1.19435
-8.73012 4.65856 -1.16529
-8.68783 4.82958 -0.486
-8.66721 4.80948 -0.84392
-8.24433 5.44187 -1.22811
-8.38599 5.16175 -1.55415
-8.89741 4.53491 -0.170797
-8.72028 4.63662 -1.41837
-8.75217 4.6509 -0.976711
-8.77722 4.66611 -0.603209
-8.32409 5.29837 -1.31696
-8.87415 4.50575 -0.589452
-8.95325 4.33084 -0.51125
-8.82588 4.47553 -1.30533
-8.907 4.29539 -1.22873
-9.20708 3.75581 -0.327043
-9.04415 4.10338 -0.550297
-8.96437 4.40583 -0.0144354
-9.05871 4.02781 -0.747373
-8.89593 4.50019 -0.360199
-8.85265 4.48875 -0.925562
-9.03311 4.24025 -0.0126634
-9.06737 4.099 -0.298252
-9.27105 3.56421 -0.508301
-8.94546 4.24053 -1.04337
-9.25322 3.67824 -0.162028
-8.98511 4.19007 -0.822682
-9.09394 4.07679 -0.0936456
-9.16359 3.89259 -0.171947
-9.3471 3.44234 -0.207127
-9.22364 3.5318 -1.2246
-9.3207 3.35025 -0.96717
-9.11679 3.78102 -1.26717
-9.40168 3.16722 -0.906274
-9.29071 3.36162 -1.26482
-9.21715 3.48016 -1.55293
-9.09384 3.88239 -1.04307
-9.36713 3.1669 -1.31475
-9.3165 3.4235 -0.659353
-9.34939 3.24898 -1.12328
-9.22951 3.63012 -0.675887
-9.46717 3.15359 -0.201674
-9.40639 3.20991 -0.642619
-8.93646 4.16914 -1.49757
-8.9732 4.11822 -1.31332
-9.16017 3.76787 -0.820584
-9.24872 3.54947 -0.843086
-9.43908 3.17784 -0.414173
-9.04408 3.93343 -1.38004
-9.29217 3.32064 -1.44756
-9.12457 3.71151 -1.51462
-9.22639 3.56407 -1.0348
-9.62744 2.57523 -0.0836581
-9.67974 2.35309 -0.096467
-9.69229 2.13937 -0.576782
-9.80927 1.8286 -0.0516639
-9.48056 3.03793 -0.527341
-9.59029 2.62792 -0.387255
-9.47722 2.87821 -1.04396
-9.53132 2.68259 -0.955421
-9.68977 2.22085 -0.365565
-9.61198 2.47393 -0.576718
-9.63964 2.46329 -0.265474
-9.41212 3.0027 -1.48035
-9.77514 1.89389 -0.280475
-9.53784 2.96099 -0.0463531
-9.73561 2.08687 -0.196078
-9.52073 2.91861 -0.384419
-9.52298 2.80057 -0.707759
-9.43279 2.98598 -1.27388
-9.61451 2.3859 -0.807249
-9.57682 2.74139 -0.216651
-9.81283 1.71221 -0.3539
-9.6359 2.06137 -1.50775
-9.82245 1.55851 -0.691965
-9.51375 2.56276 -1.52978
-9.69847 2.00377 -0.903716
-9.77148 1.56675 -1.2991
-9.47092 2.78522 -1.39872
-9.61852 2.27316 -1.09299
-9.753 1.82532 -0.758837
-9.58577 2.26522 -1.52253
-9.79632 1.71851 -0.539739
-9.52848 2.57962 -1.29703
-9.56521 2.51542 -1.03288
-9.64369 2.0907 -1.32393
-9.65208 2.20301 -0.88582
-9.72167 1.7963 -1.23352
-9.76205 1.68233 -1.07207
-9.74273 1.93387 -0.563117
-9.57244 2.42002 -1.22712
-9.71778 1.74389 -1.43766
-9.68561 1.98875 -1.10777
-9.90103 0.835975 -0.421536
-9.91856 0.578475 -0.456346
-9.84384 1.41627 -0.56793
-9.83634 1.30326 -0.776178
-9.86601 1.51824 -0.184306
-9.96322 0.255553 -0.211824
-9.87212 0.876524 -0.748395
-9.8979 0.725405 -0.571872
-9.89497 1.14364 -0.19084
-9.87479 1.20723 -0.383716
-9.97036 0.353408 -0.0232288
-9.91306 0.922467 -0.18223
-9.94827 0.550053 -0.107289
-9.89586 1.30746 -0.0157957
-9.84603 1.05299 -0.903426
-9.80897 1.42414 -1.00311
-9.86874 1.03976 -0.628031
-9.81754 1.16019 -1.15815
-9.85551 1.47814 -0.35775
-9.92399 0.700209 -0.265564
-9.94147 0.461822 -0.281823
-9.88291 0.664828 -0.822985
-9.87954 0.533235 -0.99734
-9.79785 1.23054 -1.338
-9.85112 0.56038 -1.33128
-9.88731 0.293808 -1.1381
-9.90709 0.135996 -1.04454
-9.89544 0.0918087 -1.23671
-9.83683 0.512076 -1.56124
-9.90631 0.410922 -0.779506
-9.92928 0.331015 -0.567525
-9.86145 0.76732 -0.993091
-9.86939 0.11268 -1.54688
-9.83484 0.98955 -1.10904
-9.81754 0.823364 -1.49505
-9.80502 1.05627 -1.42114
-9.87141 0.303959 -1.32999
-9.83768 0.756795 -1.30574
-9.92129 0.199789 -0.800276
-9.95181 -0.37359 -0.238688
-9.93917 -0.229497 -0.543449
-9.8797 -1.11888 -0.409698
-9.91715 -0.458087 -0.594629
-9.92575 -0.0453997 -0.897993
-9.90334 -0.951586 -0.276628
-9.89518 -0.367257 -0.964654
-9.9309 -0.480095 -0.397899
-9.89542 -1.13046 -0.198421
-9.942 -0.597974 -0.138978
-9.8935 -0.675626 -0.677569
-9.97645 -0.0367576 -0.262421
-9.88282 -0.330945 -1.15791
-9.98635 -0.103684 -0.0698148
-9.90296 -0.436425 -0.796572
-9.90681 -0.694874 -0.48917
-9.8876 -0.0118635 -1.41635
-9.96005 -0.00366738 -0.503931
-9.90347 -0.169599 -1.05699
-9.87584 -0.567254 -1.01032
-9.84072 -1.1694 -0.854398
-9.799 -1.24295 -1.311
-9.78193 -1.27938 -1.49148
-9.79091 -1.42264 -1.23415
-9.85026 -1.31267 -0.589981
-9.85555 -0.937624 -0.897803
-9.87353 -1.02033 -0.586598
-9.86293 -1.3947 -0.346972
-9.85208 -0.647745 -1.23173
-9.82263 -0.834976 -1.4187
-9.8278 -1.1458 -1.04224
-9.86689 -0.736555 -0.954731
-9.87455 -1.46086 -0.133136
-9.87212 -0.215848 -1.409
-9.85585 -0.417447 -1.41414
-9.83616 -0.635921 -1.44591
-9.8175 -1.39437 -0.924465
-9.8261 -0.950381 -1.25923
-9.79817 -1.55061 -1.01391
-9.82348 -1.49296 -0.749961
-9.79861 -0.996873 -1.56204
-9.8185 -1.73718 -0.20931
-9.67073 -2.37911 -0.130679
-9.82614 -1.58952 -0.553987
-9.75019 -1.79027 -0.898009
-9.56033 -2.79026 -0.275535
-9.78476 -1.72331 -0.668777
-9.84771 -1.58455 -0.301443
-9.62737 -2.57584 -0.0826699
-9.72802 -2.06813 -0.345975
-9.68839 -1.97936 -1.10128
-9.63816 -2.32603 -0.692289
-9.65556 -2.19956 -0.852943
-9.72346 -1.9777 -0.671469
-9.70476 -1.98839 -0.871507
-9.7899 -1.77694 -0.445467
-9.7656 -1.63041 -1.18256
-9.72218 -2.16516 -0.129624
-9.75449 -1.60849 -1.38551
-9.66614 -2.28035 -0.48149
-9.52732 -2.61523 -1.2055
-9.60008 -2.23561 -1.43324
-9.48665 -2.74137 -1.33415
-9.4901 -2.92343 -0.749798
-9.59379 -2.33819 -1.206
-9.56735 -2.58848 -0.788949
-9.55686 -2.38508 -1.52413
-9.54656 -2.61521 -0.967017
-9.70897 -1.75669 -1.50867
-9.63947 -2.0341 -1.5447
-9.69323 -1.87588 -1.3491
-9.53543 -2.82471 -0.481694
-9.51092 -2.96632 -0.364101
-9.50947 -2.59481 -1.48747
-9.53014 -2.95492 -0.159762
-9.43938 -2.96787 -1.24612
-9.64012 -2.15091 -1.18906
-9.57242 -2.63127 -0.59877
-9.46927 -2.91286 -1.03937
-9.60512 -2.35163 -1.0256
-9.32422 -3.45231 -0.427984
-8.95179 -4.42273 -0.0802477
-9.2663 -3.64912 -0.150035
-9.45716 -3.17525 -0.213941
-9.36267 -3.40974 -0.182867
-9.36193 -3.32873 -0.586697
-9.23124 -3.64452 -0.585284
-9.0305 -4.22607 -0.112605
-9.3634 -3.24773 -0.964359
-9.35003 -3.21975 -1.25836
-9.17292 -3.87248 -0.160148
-9.20163 -3.76778 -0.33271
-9.27803 -3.41179 -1.16944
-9.11602 -3.94197 -0.491308
-9.38411 -3.1069 -1.40749
-9.27958 -3.49579 -0.741466
-9.09237 -4.0469 -0.257924
-9.4234 -3.13256 -0.819641
-9.4357 -3.15763 -0.552567
-9.06653 -4.02822 -0.653334
-9.11744 -3.78669 -1.23192
-8.90064 -4.42324 -0.679977
-9.04565 -3.93725 -1.34288
-8.92457 -4.31822 -0.910433
-9.18132 -3.68739 -0.964073
-9.22022 -3.50551 -1.39316
-8.98562 -4.23935 -0.576292
-9.02631 -4.17354 -0.418108
-9.09117 -3.8831 -1.07098
-8.9857 -4.10178 -1.24633
-9.1465 -3.66191 -1.49833
-8.83851 -4.45869 -1.23871
-9.00945 -4.09992 -0.975743
-8.9672 -4.35003 -0.253315
-9.05517 -3.87892 -1.51534
-9.20921 -3.58744 -1.12313
-9.1112 -3.87603 -0.869584
-8.93893 -4.16256 -1.50053
-8.84093 -4.38738 -1.55804
-8.83331 -4.63992 -0.168084
-8.4851 -5.2333 -0.000560987
-8.59962 -4.97948 -0.446372
-8.48115 -5.12875 -0.739813
-8.22363 -5.64802 -0.0802053
-8.83482 -4.52941 -0.887645
-8.56339 -5.09432 -0.0753038
-8.68167 -4.90296 -0.0643405
-8.34216 -5.40178 -0.431957
-8.64665 -4.82811 -0.943369
-8.86268 -4.56041 -0.378362
-8.50253 -5.12424 -0.53746
-8.66349 -4.76804 -1.16034
-8.6027 -4.9356 -0.705142
-8.52404 -5.11851 -0.341811
-8.6954 -4.83623 -0.359449
-8.82049 -4.60432 -0.544506
-8.68728 -4.82273 -0.537579
-8.43196 -5.29118 -0.192536
-8.35914 -5.43027 -0.0577293
-8.15164 -5.54928 -1.52011
-8.34213 -5.27915 -1.24894
-8.50491 -4.99625 -1.36399
-8.19051 -5.64352 -0.470129
-8.07382 -5.80345 -0.673145
-8.36437 -5.27436 -1.03919
-8.21103 -5.63903 -0.276962
-8.58887 -4.83449 -1.52877
-8.46614 -5.11835 -0.972151
-8.36687 -5.21114 -1.43298
-8.11314 -5.81142 -0.19277
-8.06477 -5.71587 -1.3547
-8.33721 -5.35163 -0.819709
-8.61666 -4.81665 -1.34561
-8.09634 -5.71299 -1.0309
-8.09559 -5.81214 -0.378676
-8.29253 -5.45302 -0.630085
-8.57036 -4.93095 -1.08752
-8.70108 -4.65588 -1.49881
-8.1866 -5.54699 -1.15543
-8.17809 -5.62946 -0.698711
-8.24121 -5.41381 -1.44886
-8.02103 -5.81482 -1.17118
-7.62741 -6.33628 -0.690232
-7.44364 -6.55833 -0.633315
-8.03594 -5.93498 -0.0526775
-7.98278 -5.88839 -0.953538
-7.5836 -6.43689 -0.282095
-7.99033 -5.93127 -0.525403
-7.56211 -6.4336 -0.517538
-7.68922 -6.28887 -0.483668
-7.80559 -6.19775 -0.110099
-7.82327 -6.0686 -1.00782
-7.92452 -6.0451 -0.220985
-7.31236 -6.76181 -0.221348
-7.49698 -6.55856 -0.114486
-7.44886 -6.58238 -0.383706
-7.75863 -6.1624 -0.857881
-7.96461 -5.93509 -0.743171
-7.85506 -6.07053 -0.683792
-7.69899 -6.30779 -0.232386
-7.88913 -5.97077 -1.17925
-7.16611 -6.95882 -0.0079483
-7.79787 -6.17184 -0.399418
-7.25201 -6.73179 -1.05475
-7.63439 -6.27987 -1.08958
-7.12439 -6.84323 -1.36916
-7.21107 -6.82623 -0.669777
-7.54162 -6.41893 -0.837589
-7.85188 -5.98045 -1.46019
-7.54586 -6.34934 -1.37258
-7.66049 -6.22688 -1.2753
-7.12332 -6.88388 -1.04307
-7.30604 -6.61214 -1.52147
-7.60462 -6.26056 -1.53794
-7.74642 -6.09291 -1.55139
-7.31295 -6.69657 -0.755672
-7.07347 -6.97986 -0.731673
-7.1273 -6.95006 -0.456719
-7.24715 -6.8067 -0.481769
-7.41804 -6.56086 -0.860443
-7.34697 -6.59776 -1.24381
-7.12626 -6.98372 -0.188131
-6.94724 -7.09263 -0.816043
-6.74106 -7.28617 -0.646908
-6.80386 -7.19714 -0.989927
-6.70076 -7.2714 -1.12361
-6.79488 -7.27431 -0.316333
-6.42366 -7.55899 -0.630194
-6.64033 -7.40513 -0.327738
-6.87286 -7.18413 -0.544872
-6.42221 -7.59503 -0.292849
-6.32347 -7.69526 -0.138706
-6.91593 -7.18116 -0.217237
-6.50739 -7.5067 -0.443751
-6.61438 -7.3745 -0.839458
-6.16404 -7.82021 -0.247447
-6.95922 -7.03572 -1.26847
-6.71275 -7.3625 -0.141534
-6.54484 -7.50636 -0.13715
-6.24452 -7.73208 -0.435408
-6.94211 -7.07082 -1.06978
-5.94895 -7.97688 -0.509458
-5.97052 -7.8529 -1.53252
-6.4288 -7.48058 -1.34749
-6.37458 -7.50654 -1.54471
-6.75575 -7.19903 -1.3699
-5.86597 -8.06504 -0.341894
-6.09043 -7.85888 -0.482022
-6.61541 -7.31683 -1.38986
-6.54634 -7.39701 -1.18457
-6.21882 -7.64759 -1.46696
-6.07559 -7.78563 -1.31478
-6.42153 -7.52544 -0.97288
-6.90604 -7.06037 -1.46975
-6.24196 -7.64952 -1.25668
-5.96733 -7.99451 -0.18651
-6.0524 -7.82916 -1.08477
-5.92073 -7.92042 -1.29029
-6.16528 -7.74421 -0.973788
-5.98872 -7.92222 -0.710076
-6.13066 -7.80642 -0.657444
-5.58959 -8.26503 -0.0193997
-5.69051 -8.1159 -0.96796
-5.43515 -8.31568 -0.497495
-4.80045 -8.73185 -0.201611
-5.4005 -8.38231 -0.00415178
-5.78847 -8.03872 -1.15438
-5.60738 -8.22592 -0.325974
-5.14935 -8.50514 -0.341825
-5.3182 -8.40405 -0.315942
-5.62596 -8.18194 -0.680199
-5.7961 -8.06883 -0.776288
-5.64212 -8.11382 -1.31285
-5.05009 -8.59461 -0.0305713
-5.17212 -8.45752 -0.707714
-4.99194 -8.60612 -0.292794
-5.77788 -8.13583 -0.169629
-5.55618 -8.18419 -1.12045
-5.4727 -8.32195 -0.17933
-5.51628 -8.23438 -0.840732
-5.30093 -8.36949 -0.806522
-5.35667 -8.27896 -1.41916
-5.00566 -8.56402 -0.658908
-4.66107 -8.75935 -0.83095
-4.54258 -8.84494 -0.689941
-4.95564 -8.57665 -0.854819
-5.10026 -8.45159 -1.25075
-4.58711 -8.75984 -1.31813
-4.75014 -8.72648 -0.59505
-4.69519 -8.71853 -1.04739
-4.64465 -8.81358 -0.350967
-4.80944 -8.63574 -1.18617
-4.97427 -8.54693 -1.05367
-4.57758 -8.74772 -1.51335
-5.06166 -8.45109 -1.51314
-5.26189 -8.36142 -1.15423
-4.48314 -8.83692 -1.13817
-4.40617 -8.85022 -1.35701
-3.88886 -9.17875 -0.011631
-4.06949 -9.09266 -0.144291
-4.16708 -8.97597 -1.04233
-4.30998 -8.90919 -1.13177
-4.32763 -8.92618 -0.845657
-3.60498 -9.27939 -0.211205
-4.49537 -8.85063 -0.917127
-4.45326 -8.94187 -0.0481562
-4.05855 -9.03647 -0.859291
-3.91035 -9.13365 -0.43783
-4.28985 -9.00464 -0.105983
-3.71963 -9.22004 -0.350857
-3.39421 -9.36523 -0.228373
-4.25664 -8.97423 -0.625991
-4.50281 -8.90317 -0.262114
-3.75072 -9.18793 -0.577322
-4.48276 -8.89254 -0.485057
-4.11217 -9.04293 -0.521809
-4.20503 -9.02019 -0.336668
-3.8629 -9.12558 -0.764353
-3.24827 -9.41119 -0.399042
-3.33835 -9.35898 -0.574467
-3.47406 -9.24393 -1.26733
-3.4533 -9.32512 -0.412484
-4.10493 -8.9734 -1.37584
-3.16191 -9.38601 -1.11673
-3.86264 -9.10761 -0.977151
-3.2456 -9.32752 -1.39728
-3.59773 -9.21303 -1.02792
-3.46822 -9.28061 -0.863934
-3.52267 -9.27415 -0.674273
-4.0253 -9.02255 -1.18549
-3.43101 -9.24441 -1.47158
-3.81448 -9.11198 -1.16061
-3.91224 -9.05419 -1.36429
-4.17796 -8.92718 -1.56389
-3.65457 -9.1564 -1.41759
-3.22146 -9.37871 -0.912262
-1.7154 -9.83457 -0.0749025
-3.07088 -9.48012 -0.434783
-2.27083 -9.68453 -0.281884
-3.06898 -9.44968 -0.817633
-2.00346 -9.7706 -0.0106411
-2.52728 -9.63966 -0.0748431
-2.01782 -9.74553 -0.278584
-3.01761 -9.50783 -0.249816
-2.76864 -9.57174 -0.19849
-3.04889 -9.51582 -0.0577352
-2.10932 -9.70972 -0.450256
-3.05102 -9.40991 -1.36394
-2.59475 -9.57363 -0.692502
-2.92175 -9.46884 -1.0182
-2.69211 -9.60511 -0.0126147
-2.63978 -9.5414 -0.957952
-2.87488 -9.51919 -0.533706
-2.32822 -9.65588 -0.466204
-2.53203 -9.6085 -0.446955
-2.89007 -9.46173 -1.20057
-2.42417 -9.62041 -0.62025
-2.85538 -9.50008 -0.82854
-1.58027 -9.7738 -1.23017
-2.46017 -9.54163 -1.48954
-1.81341 -9.79159 -0.316019
-2.22596 -9.65883 -0.733854
-2.19443 -9.64791 -0.96298
-2.06236 -9.66284 -1.17097
-1.99797 -9.69147 -1.00771
-2.3364 -9.60091 -1.12311
-2.67868 -9.49449 -1.42356
-1.88443 -9.76066 -0.487979
-2.37215 -9.61199 -0.879426
-1.63619 -9.77942 -0.994171
-1.96249 -9.71634 -0.805003
-1.77707 -9.75468 -0.881527
-1.80043 -9.70497 -1.42809
-2.53529 -9.54312 -1.24756
-2.24991 -9.60633 -1.31326
-0.720524 -9.89914 -0.561066
-1.38407 -9.78651 -1.32858
-1.07331 -9.89297 -0.286648
-0.637995 -9.94786 -0.0244901
-1.08958 -9.8768 -0.47585
-0.346558 -9.95895 -0.175058
-1.34132 -9.88594 -0.10792
-1.14922 -9.82882 -1.02582
-1.03319 -9.86132 -0.728875
-1.24372 -9.83391 -0.866667
-0.6326 -9.9203 -0.380085
-0.815705 -9.87986 -0.71081
-0.529417 -9.94295 -0.195465
-0.386011 -9.9393 -0.385296
-1.35743 -9.85929 -0.430461
-1.52977 -9.84269 -0.469025
-0.917716 -9.89592 -0.404765
-1.3357 -9.80511 -1.14058
-1.44964 -9.80956 -0.970167
-1.48601 -9.86547 -0.223404
-0.775506 -9.9277 -0.143204
-1.54845 -9.82085 -0.72792
-1.00974 -9.91642 -0.0522847
-0.825977 -9.83582 -1.26014
-0.952665 -9.84329 -1.03847
-0.0922394 -9.97719 -0.197599
-0.373505 -9.9197 -0.646861
-0.250588 -9.90603 -0.943383
-0.168143 -9.95082 -0.45669
-0.490255 -9.86905 -1.17368
-0.350356 -9.86277 -1.3933
-1.04266 -9.79529 -1.55844
-1.19948 -9.79812 -1.36561
-0.476587 -9.89514 -0.855786
-0.670896 -9.86952 -0.987056
-0.15524 -9.89279 -1.20701
-0.541234 -9.83917 -1.50229
-0.152262 -9.93783 -0.637701
0.687097 -9.89743 -0.616182
1.24336 -9.88716 -0.190346
0.243139 -9.96053 -0.25841
0.506904 -9.91405 -0.58522
0.375423 -9.89078 -1.01238
0.00807412 -9.8944 -1.33372
0.958153 -9.89521 -0.373355
1.39475 -9.88266 -0.0962334
0.23064 -9.91765 -0.815745
0.9282 -9.88362 -0.550489
0.762528 -9.91994 -0.254697
0.28037 -9.97267 -0.0669037
0.938552 -9.91843 -0.0979516
0.0229053 -9.92613 -0.915716
0.18457 -9.88481 -1.27905
0.200986 -9.89939 -1.07744
0.0467723 -9.95302 -0.550138
0.253673 -9.9343 -0.581078
0.555584 -9.88172 -0.947338
0.548206 -9.9257 -0.395915
0.448839 -9.95006 -0.185749
1.53845 -9.837 -0.532721
1.42194 -9.82422 -0.811528
0.86792 -9.86816 -0.807299
1.35719 -9.80063 -1.17604
1.50441 -9.85329 -0.359768
1.27558 -9.82601 -0.935219
0.634838 -9.86095 -1.13199
1.48011 -9.80539 -0.992646
1.05611 -9.85571 -0.777296
0.37885 -9.848 -1.55255
0.859195 -9.84362 -1.12786
1.33283 -9.78781 -1.36329
1.25795 -9.8524 -0.617495
1.16765 -9.80621 -1.29469
1.06366 -9.79823 -1.50006
1.26785 -9.86568 -0.438823
1.53599 -9.78052 -1.25278
0.443296 -9.85892 -1.34923
0.848833 -9.82782 -1.33891
0.62571 -9.83828 -1.42914
1.15698 -9.82434 -1.07501
2.17747 -9.72406 -0.0697291
2.40449 -9.63666 -0.477386
2.21263 -9.66947 -0.641695
2.19056 -9.68892 -0.466296
2.65623 -9.59541 -0.239598
1.87336 -9.71388 -1.10076
2.09204 -9.67125 -0.978395
1.89262 -9.76394 -0.423047
1.80291 -9.71519 -1.29407
2.05173 -9.69662 -0.78391
1.81056 -9.74841 -0.85969
2.0182 -9.71911 -0.604952
1.71581 -9.80641 -0.422714
1.61042 -9.85186 -0.173087
1.90962 -9.78406 -0.123131
2.31048 -9.67512 -0.280525
2.60914 -9.62354 -0.0310828
2.04667 -9.74002 -0.261127
1.72175 -9.78953 -0.614282
2.89318 -9.54625 -0.143916
2.6092 -9.54424 -1.01369
3.03139 -9.49372 -0.383635
2.82304 -9.49795 -0.951161
3.0025 -9.45846 -0.906558
2.7311 -9.50129 -1.18337
2.42301 -9.57399 -1.19904
2.16493 -9.61029 -1.51699
2.0309 -9.66025 -1.29664
2.25578 -9.60481 -1.31466
2.68742 -9.4967 -1.37016
2.60219 -9.58081 -0.581374
1.80777 -9.69335 -1.55026
2.48253 -9.59858 -0.717204
2.82827 -9.54779 -0.317909
2.80822 -9.51631 -0.7677
2.90644 -9.46312 -1.13466
2.28001 -9.62592 -0.980943
2.90308 -9.51213 -0.537311
2.78859 -9.45987 -1.52554
2.86758 -9.45743 -1.32085
3.83226 -9.18787 -0.180225
3.84545 -9.15192 -0.539286
3.13039 -9.4047 -1.05046
3.33223 -9.32856 -0.96251
3.98549 -9.11006 -0.349128
3.23157 -9.33892 -1.33145
3.19136 -9.44765 -0.247254
3.64707 -9.23096 -0.57616
3.50324 -9.26435 -0.884449
3.19709 -9.42794 -0.451485
3.45977 -9.33 -0.32352
4.17615 -9.04857 -0.143268
3.77805 -9.1942 -0.370203
4.41591 -8.95516 -0.073755
3.44765 -9.31873 -0.515342
3.267 -9.37454 -0.739209
3.11878 -9.37187 -1.49363
4.35118 -8.95783 -0.358031
4.16053 -9.00517 -0.730575
3.96919 -9.08011 -0.781377
4.3454 -8.92644 -0.755854
4.43182 -8.8764 -0.923612
4.41722 -8.8628 -1.15494
3.69662 -9.16082 -1.16036
3.71197 -9.12987 -1.44991
4.50587 -8.87767 -0.547509
3.54786 -9.21097 -1.29548
4.02906 -9.07267 -0.576956
3.8496 -9.08799 -1.27181
3.99902 -9.00711 -1.49538
4.16831 -9.0276 -0.428373
3.87914 -9.09284 -1.07063
4.10089 -9.00835 -0.98391
4.14361 -8.95692 -1.38126
4.33089 -8.87434 -1.44017
3.42594 -9.24911 -1.44101
4.00848 -9.02784 -1.20522
3.79742 -9.14592 -0.844148
5.40459 -8.3381 -0.457322
5.17394 -8.51232 -0.100077
5.01899 -8.54231 -0.805989
5.04858 -8.54613 -0.567432
4.71321 -8.70429 -1.08214
4.87584 -8.61921 -0.923693
5.68432 -8.20007 -0.0945569
4.70583 -8.72657 -0.889073
4.78526 -8.70175 -0.629959
4.70614 -8.7834 -0.269504
5.22035 -8.46622 -0.291901
5.20064 -8.46024 -0.488208
5.57075 -8.25149 -0.292016
4.9197 -8.64323 -0.370584
4.5825 -8.77045 -1.23363
5.38562 -8.37001 -0.236858
4.94487 -8.65414 -0.0843566
4.66254 -8.79284 -0.457235
4.65475 -8.83394 -0.0625201
4.94386 -8.52955 -1.44506
5.495 -8.22419 -1.09315
5.17923 -8.42455 -1.01873
5.41445 -8.23492 -1.51303
5.74786 -8.10793 -0.672655
5.21505 -8.38495 -1.21046
5.64917 -8.1266 -1.12709
5.37403 -8.2814 -1.2771
5.25427 -8.33545 -1.48722
5.08768 -8.43531 -1.51141
5.59105 -8.18429 -0.887114
5.59461 -8.2022 -0.668782
5.55642 -8.1661 -1.31545
5.0794 -8.45869 -1.3125
5.82704 -8.10418 -0.186113
5.36682 -8.33093 -0.786784
5.67325 -8.17297 -0.46269
5.57354 -8.1356 -1.53289
4.99589 -8.53377 -1.0527
4.81675 -8.6184 -1.32602
5.80905 -8.02743 -1.13999
5.21426 -8.42075 -0.826653
5.71672 -8.06801 -1.31383
6.06235 -7.81679 -1.12235
5.81439 -7.99429 -1.45459
6.129 -7.85466 -0.203563
6.06459 -7.88435 -0.448991
6.5402 -7.4959 -0.276876
6.83417 -7.27299 -0.00400045
5.89493 -7.97906 -0.935484
6.10231 -7.83422 -0.622635
6.28301 -7.73715 -0.0677234
5.92684 -7.98183 -0.644531
5.99436 -7.96188 -0.278953
6.76075 -7.3031 -0.319812
6.29867 -7.69303 -0.365671
6.46131 -7.52279 -0.669291
5.97351 -7.99882 -0.0935417
6.54831 -7.46374 -0.521467
6.25063 -7.67355 -0.95215
6.94017 -7.16817 -0.142492
6.06984 -7.83044 -0.928037
6.31668 -7.65932 -0.543306
6.24931 -7.69847 -0.721453
6.9338 -7.11171 -0.742323
6.8095 -7.23517 -0.574781
6.72111 -7.22523 -1.40267
6.95949 -7.12321 -0.418183
6.43759 -7.52379 -0.855917
6.21555 -7.68415 -1.13977
6.69041 -7.30083 -0.924088
6.48324 -7.45774 -1.11822
5.99789 -7.846 -1.37286
6.33281 -7.55585 -1.41258
6.4572 -7.4585 -1.32635
6.89041 -7.11337 -1.08537
6.89884 -7.08021 -1.337
6.137 -7.7133 -1.50741
6.67424 -7.28431 -1.21808
6.84069 -7.17487 -0.900948
7.45338 -6.56455 -0.487448
7.1065 -6.88761 -1.17516
7.78135 -6.21266 -0.221657
7.22733 -6.78277 -0.871884
7.98978 -5.98129 -0.116755
7.18458 -6.9215 -0.137845
7.65137 -6.3432 -0.400772
7.35153 -6.63772 -0.868896
7.07177 -7.00066 -0.575975
7.30274 -6.75009 -0.411581
7.4657 -6.60864 -0.00314516
7.30971 -6.70658 -0.704184
7.38414 -6.68105 -0.194157
7.45821 -6.53 -0.726619
7.21763 -6.8327 -0.552663
7.08719 -6.94615 -0.877785
7.19096 -6.88733 -0.358964
7.63227 -6.38785 -0.216295
7.74438 -6.09651 -1.54142
7.68387 -6.28311 -0.583249
7.67588 -6.20182 -1.33356
7.78889 -6.13923 -0.756364
7.29763 -6.62029 -1.53555
7.89648 -5.96258 -1.1758
7.1313 -6.81898 -1.50288
7.60591 -6.31655 -1.06202
7.53203 -6.3773 -1.27514
7.5989 -6.35547 -0.807788
7.78836 -6.17953 -0.427969
7.95459 -5.97048 -0.547251
7.9273 -6.03515 -0.276372
8.00058 -5.87841 -0.863669
7.85387 -6.04517 -0.90522
7.33831 -6.61835 -1.15736
7.59123 -6.28384 -1.47497
7.36957 -6.55573 -1.37275
7.72944 -6.16951 -1.0819
7.88103 -5.95224 -1.4112
7.2252 -6.72999 -1.32944
8.29671 -5.50824 -0.216911
8.48374 -5.17981 -0.37155
8.44832 -5.27483 -0.123686
8.37398 -5.36144 -0.354725
8.00898 -5.80315 -1.37975
8.21193 -5.50828 -1.13793
8.30432 -5.38134 -0.979262
8.162 -5.74184 -0.12517
8.29296 -5.46888 -0.519769
8.10421 -5.67113 -1.22408
8.13922 -5.68444 -0.754969
8.16639 -5.60914 -0.961124
8.66641 -4.88522 -0.348321
8.60334 -5.02145 -0.126393
8.27121 -5.46188 -0.802673
8.39069 -5.30302 -0.562295
8.18312 -5.66674 -0.395736
8.75644 -4.75599 -0.230486
8.82056 -4.68584 -0.000795236
8.08159 -5.82105 -0.471539
8.73295 -4.64526 -1.2231
8.60774 -4.91984 -0.755336
8.57928 -4.91402 -1.10332
8.64852 -4.7389 -1.51707
8.32334 -5.29315 -1.35988
8.76246 -4.69632 -0.562434
8.7588 -4.57568 -1.40554
8.50394 -5.0597 -0.951927
8.50738 -5.09091 -0.706729
8.45157 -5.0962 -1.27792
8.74921 -4.68043 -0.812285
8.71218 -4.70851 -1.02762
8.84192 -4.58872 -0.41553
8.84564 -4.51112 -0.891816
8.43172 -5.15753 -1.0852
8.66506 -4.85013 -0.596581
8.52145 -4.94913 -1.49798
8.20397 -5.48297 -1.39303
8.42843 -5.09552 -1.53396
9.05138 -4.1204 -0.382127
8.99444 -4.22657 -0.534771
9.0766 -4.02245 -0.562827
9.07649 -3.94261 -0.953635
9.39281 -3.33822 -0.17678
9.0104 -4.13415 -0.797581
9.02007 -4.25586 -0.0900262
9.32248 -3.52386 -0.0993949
9.1416 -3.84722 -0.652224
8.87706 -4.38943 -1.12265
9.18294 -3.85768 -0.114381
9.19031 -3.76938 -0.458321
8.90895 -4.52508 -0.0854836
9.09049 -4.06626 -0.185653
8.9917 -4.13502 -1.01361
8.88473 -4.46401 -0.668464
8.95797 -4.35224 -0.351184
9.11364 -4.04804 -0.00192326
9.2696 -3.61949 -0.255716
9.45343 -3.216 -0.0590507
8.86154 -4.35353 -1.48041
9.27685 -3.35034 -1.48308
9.20414 -3.60776 -1.08378
9.35404 -3.34961 -0.577682
9.25116 -3.44549 -1.32153
9.17696 -3.59532 -1.46442
9.40737 -3.06035 -1.36064
9.37381 -3.22177 -0.968485
8.95536 -4.11517 -1.53828
9.28888 -3.46434 -0.785366
9.19948 -3.66151 -0.876453
9.38204 -3.16165 -1.16475
9.21786 -3.65309 -0.701034
9.27621 -3.5474 -0.529415
9.13428 -3.7824 -1.05454
9.05281 -3.96098 -1.1428
9.30058 -3.37694 -1.07389
9.43638 -3.12584 -0.699518
8.98034 -4.11405 -1.24961
9.13202 -3.73418 -1.31631
9.53684 -2.76967 -0.627909
9.60653 -2.55541 -0.401785
9.67986 -2.21732 -0.498951
9.63753 -2.49848 -0.187048
9.60249 -2.5066 -0.597079
9.58827 -2.4968 -0.802489
9.48388 -2.91269 -0.858784
9.728 -2.03574 -0.442532
9.44844 -2.97508 -1.11236
9.77571 -1.90739 -0.233239
9.5461 -2.6109 -0.985663
9.54124 -2.90468 -0.171749
9.72235 -2.11772 -0.26867
9.48426 -2.80182 -1.18394
9.58071 -2.78237 -0.0464658
9.48853 -3.07005 -0.332938
9.82289 -1.73934 -0.148499
9.5533 -2.78347 -0.382961
9.66222 -2.33557 -0.365768
9.59063 -2.68446 -0.21489
9.71788 -1.77178 -1.35332
9.77821 -1.64998 -0.968059
9.78433 -1.79087 -0.473091
9.62502 -2.28489 -0.977581
9.83073 -1.65107 -0.314002
9.48823 -2.72675 -1.35817
9.66075 -2.10269 -1.07685
9.77051 -1.58608 -1.25358
9.65131 -2.06377 -1.30968
9.72497 -1.92283 -0.816119
9.53725 -2.56856 -1.2212
9.7398 -1.75774 -1.12355
9.75981 -1.56644 -1.44466
9.54092 -2.48911 -1.41216
9.61636 -2.14407 -1.50382
9.77257 -1.73061 -0.798115
9.81436 -1.63006 -0.579407
9.66066 -2.19148 -0.813794
9.74797 -1.88895 -0.631796
9.85109 -1.31343 -0.578618
9.8188 -1.47161 -0.830749
9.83677 -1.03407 -1.04002
9.85969 -1.11303 -0.669765
9.93946 -0.56942 -0.199752
9.9928 -0.0896611 -0.00183403
9.90102 -0.765808 -0.49189
9.86919 -1.55306 -0.109002
9.80083 -1.4833 -1.04735
9.82861 -1.24545 -0.932238
9.93963 -0.756249 -0.0107948
9.88773 -1.24913 -0.177379
9.80814 -1.29231 -1.14553
9.9186 -0.990762 -0.0435042
9.89058 -0.717841 -0.672485
9.95505 -0.360748 -0.210382
9.89468 -0.951025 -0.387151
9.85139 -1.47501 -0.413312
9.8779 -1.15831 -0.393068
9.86817 -0.367495 -1.3076
9.95588 -0.216296 -0.344297
9.86611 -0.686571 -1.01467
9.90216 -0.489799 -0.753419
9.97186 -0.0285638 -0.328952
9.89675 -0.132666 -1.1793
9.79239 -1.09967 -1.53829
9.87536 -0.163372 -1.42031
9.81552 -0.988932 -1.35506
9.93182 -0.221193 -0.645135
9.84675 -0.85818 -1.0891
9.93025 -0.0182753 -0.867986
9.88473 -0.340702 -1.12389
9.87112 -0.782543 -0.855091
9.86657 -0.531621 -1.16372
9.90777 -0.209168 -0.962718
9.77644 -1.32047 -1.52016
9.83791 -0.769645 -1.28989
9.92112 -0.454022 -0.548306
9.70693 0.0183884 -2.2662
9.6766 0.575709 -2.20984
9.74628 0.0841197 -2.08078
9.80315 0.845658 -1.59426
9.553 0.229713 -2.8381
9.82299 0.0453724 -1.77394
9.7755 1.09015 -1.62927
9.82594 0.627242 -1.57094
9.72098 1.11679 -1.84763
9.52708 0.0961016 -2.98986
9.73844 0.606844 -1.94208
9.66412 0.762137 -2.20073
9.79378 0.487054 -1.75083
9.59184 0.392211 -2.62306
9.61617 0.580035 -2.46016
9.75005 0.419896 -1.95501
9.75975 0.825868 -1.78149
9.77091 0.23918 -1.92734
9.61828 0.168826 -2.58615
9.66189 0.239754 -2.38127
9.68897 1.02069 -2.01244
9.6694 0.40781 -2.29487
9.57883 0.0530611 -2.78843
9.51121 0.598665 -2.89123
9.49998 1.4621 -2.65497
9.58915 1.34349 -2.32241
9.61604 0.855733 -2.37033
9.66294 1.36674 -2.00745
9.5199 0.810504 -2.7856
9.68919 1.47384 -1.86298
9.41652 1.46112 -3.00291
9.60801 1.11832 -2.31769
9.49866 0.329845 -3.03161
9.54825 0.435403 -2.79047
9.4633 0.657702 -3.07143
9.48872 1.05095 -2.83663
9.45281 1.25826 -2.91825
9.57989 0.741927 -2.5582
9.57182 1.06061 -2.48733
9.52679 1.21349 -2.62477
9.64365 1.19537 -2.14397
9.43096 1.07665 -3.06881
9.39809 2.8979 -1.69604
9.47722 1.87745 -2.36988
9.43326 2.28602 -2.14995
9.64501 1.68041 -1.88035
9.54768 1.7493 -2.2086
9.39417 1.69871 -2.88162
9.53619 1.52968 -2.4695
9.65396 1.89549 -1.63422
9.6036 2.17043 -1.57064
9.45471 1.7686 -2.56747
9.42941 2.07255 -2.37382
9.70858 1.59828 -1.70221
9.56685 1.87328 -2.00977
9.49694 2.08746 -2.08488
9.56396 2.07997 -1.81994
9.45259 2.71409 -1.6539
9.46404 2.43749 -1.87715
9.62312 1.58041 -2.06685
9.32067 2.58783 -2.31297
9.34002 2.95668 -1.87462
9.18451 2.68831 -2.76816
9.32282 1.98901 -2.88833
9.08022 2.83375 -3.05
9.38409 1.87767 -2.748
9.2641 2.98684 -2.15362
9.14978 2.63001 -2.96612
9.35374 2.62517 -2.1422
9.30726 2.41251 -2.53846
9.359 1.6477 -3.07426
9.23797 2.19955 -3.02768
9.15365 2.48702 -3.08987
9.25175 2.82654 -2.36015
9.26651 2.26246 -2.85038
9.29957 1.91485 -3.05514
9.25329 2.43164 -2.73907
9.25726 2.58759 -2.57084
9.35813 2.2376 -2.50241
9.39138 2.68364 -1.93227
9.37184 2.06901 -2.61113
9.14546 2.89982 -2.72052
9.03372 3.19665 -2.72195
9.06461 3.40574 -2.26839
8.92093 3.87564 -2.07168
9.18458 3.25172 -2.05156
9.09847 3.24996 -2.38678
9.06314 3.80622 -1.63374
9.05636 3.51688 -2.12255
9.19783 3.02406 -2.36443
9.21066 3.4882 -1.57276
9.07676 3.64109 -1.84518
8.98021 3.42043 -2.57071
8.96165 3.96085 -1.77825
8.97545 3.56136 -2.36375
9.11098 3.13106 -2.52859
9.27153 3.19072 -1.81345
9.18893 3.39815 -1.80065
8.92339 4.16214 -1.60411
8.62604 4.20647 -2.68103
8.63946 4.08147 -2.82911
8.50596 4.307 -2.98381
8.70433 4.20805 -2.37631
8.77036 4.26615 -2.02852
9.02863 3.01812 -3.02707
8.70814 4.08794 -2.55365
8.63872 3.96927 -3.01138
8.88686 3.6134 -2.6225
8.83672 3.61499 -2.81353
8.76392 4.44446 -1.76826
8.80526 3.94253 -2.41124
8.82223 4.26474 -1.83056
8.78756 3.7865 -2.72905
8.93679 3.23536 -3.03421
8.80268 4.05793 -2.23669
8.74853 3.75907 -2.92355
8.21212 5.16596 -2.17122
8.24957 5.30544 -1.7333
8.68084 4.51278 -1.92736
8.5268 4.36074 -2.80804
8.67798 4.43546 -2.10633
8.34064 4.73572 -2.65263
8.37928 4.80353 -2.36691
8.08851 5.53083 -1.81502
8.39255 4.93248 -2.03816
8.40446 4.58128 -2.76241
8.44996 4.98994 -1.70819
8.17343 5.48605 -1.61025
8.26832 5.19059 -1.91722
8.56916 4.48005 -2.39667
8.70416 4.5972 -1.65997
8.53295 4.43791 -2.61764
8.53762 4.66836 -2.09793
8.5237 4.78459 -1.89376
8.21327 4.96614 -2.60336
8.10099 5.13795 -2.62828
7.86782 5.55065 -2.55797
